859.3603 859.4089 859.4274 859.4246 859.4025 859.3979 859.466 859.5455 859.5952 859.6056 859.5943 859.5585 859.4579 859.2855 859.0922 858.9017 858.782 858.8152 858.9004 858.9383 858.9418 858.8889 858.6805 858.2572 857.7506 857.2237 856.7018 856.2153 855.7988 855.5777 855.6885 856.0829 856.6168 857.0961 857.4165 857.5173 857.4469 857.2393 856.9716 856.8182 856.6916 856.5682 856.6727 856.983 857.3109 857.5201 857.6072 857.6027 857.5795 857.606 857.6525 857.5046 857.1212 856.696 856.3178 855.9692 855.71 855.4788 855.2066 855.0143 854.9929 855.0834 855.1973 855.258 855.2775 855.2863 855.2266 854.9872 854.7004 854.7464 855.0181 855.301 855.4049 855.0392 854.2437 853.2624 852.2383 851.3063 850.5273 849.9636 849.6704 849.5045 849.2792 849.0416 848.824 848.5977 848.2551 847.695 847.0362 846.3443 845.631 844.9373 844.4552 844.3006 844.2765 844.1344 843.7714 843.3132 842.8015 842.2089 841.5443 840.7294 839.7349 838.657 837.6122 836.579 835.4595 834.3358 833.5836 833.3339 833.3093 833.3832 833.6091 833.9478 834.1745 834.3259 834.4931 834.6086 834.5299 834.3015 834.0639 833.9631 834.0043 834.0568 834.1438 834.2701 834.4241 834.6671 834.9136 834.9379 834.641 834.2351 833.8516 833.4752 833.0694 832.6476 832.2849 832.0354 831.9333 831.9263 831.9505 832.0991 832.4719 832.9334 833.3634 833.6923 833.4962 833.1693 832.6849 831.9363 831.113 830.2984 829.603 829.1655
859.0679 859.2236 859.3105 859.3494 859.3442 859.3391 859.4293 859.537 859.5952 859.6119 859.6092 859.6069 859.6001 859.583 859.5402 859.4327 859.3214 859.3021 859.3047 859.2958 859.2808 859.2122 859.0662 858.8076 858.3805 857.8956 857.5313 857.1454 856.7025 856.4097 856.3109 856.4821 856.967 857.4387 857.755 857.8904 857.8405 857.6724 857.4937 857.4075 857.3331 857.3224 857.5032 857.8279 858.1007 858.0714 857.8589 857.6912 857.5966 857.5708 857.5791 857.4251 857.1071 856.8182 856.5955 856.4027 856.2831 856.0895 855.8078 855.664 855.6959 855.796 855.923 856.0366 856.0803 856.0421 855.9309 855.7171 855.5191 855.6008 855.8088 855.9874 855.9644 855.525 854.8251 854.0725 853.178 852.1977 851.2888 850.5518 850.0812 849.8198 849.5909 849.3566 849.1212 848.8708 848.5234 847.9546 847.256 846.5682 845.9284 845.3556 845.0676 845.0806 845.1187 844.9761 844.593 844.1021 843.5746 842.9785 842.3356 841.6281 840.7123 839.612 838.4966 837.3096 835.9465 834.7275 834.0695 833.8376 833.753 833.7894 833.9899 834.2568 834.4104 834.526 834.724 834.8794 834.7606 834.4589 834.2198 834.2119 834.3163 834.4068 834.5055 834.5932 834.7104 834.8914 834.939 834.707 834.3153 833.9038 833.4999 833.0156 832.4672 832.0567 831.8683 831.8576 832.0187 832.2265 832.4711 832.8401 833.3526 833.828 834.1204 834.3121 834.1526 833.7149 833.0418 832.2469 831.4521 830.6927 830.0083 829.4752
858.5984 858.7966 858.9686 859.1319 859.2502 859.2855 859.3904 859.5201 859.5898 859.6152 859.6055 859.5969 859.6032 859.6069 859.6088 859.6013 859.5767 859.5483 859.5504 859.5778 859.5703 859.5186 859.4681 859.3635 859.041 858.616 858.3981 858.2313 857.9013 857.5482 857.3095 857.2357 857.4562 857.847 858.2045 858.3965 858.3745 858.2734 858.2447 858.2936 858.3065 858.2927 858.4063 858.5856 858.6168 858.3687 858.0452 857.8298 857.6791 857.5715 857.5048 857.382 857.2156 857.1071 857.0086 856.9049 856.8376 856.6581 856.4171 856.3429 856.4045 856.5021 856.5994 856.6547 856.6354 856.5715 856.4782 856.3202 856.176 856.1696 856.1754 856.1661 856.0392 855.6176 855.0958 854.5917 853.932 853.0474 852.0936 851.2476 850.5881 850.1638 849.8824 849.6294 849.3719 849.1163 848.7742 848.2197 847.5364 846.8647 846.2791 845.8538 845.7466 845.851 845.9279 845.7706 845.3206 844.7428 844.1545 843.5352 842.8608 842.1699 841.3669 840.337 839.1663 837.8334 836.3513 835.0969 834.472 834.2315 834.1196 834.1559 834.3337 834.5566 834.7122 834.864 835.0739 835.1795 834.9908 834.6378 834.4395 834.557 834.7094 834.7885 834.8381 834.8452 834.8733 834.8995 834.6982 834.3284 833.926 833.5246 833.0771 832.5083 831.9193 831.6574 831.8311 832.1293 832.45 832.8047 833.2522 833.7885 834.3293 834.7263 834.8839 834.8893 834.6246 834.1628 833.4951 832.6992 831.9124 831.1977 830.5024 829.8459
858.3552 858.4484 858.6098 858.8719 859.1452 859.2679 859.3665 859.4744 859.5511 859.5958 859.5947 859.587 859.5933 859.5989 859.6063 859.6119 859.6068 859.5943 859.6182 859.6692 859.6848 859.6584 859.6647 859.6712 859.5276 859.2548 859.0933 859.0062 858.8137 858.4946 858.2324 858.0996 858.1605 858.4037 858.7255 858.9145 858.9128 858.841 858.8674 858.9908 859.0749 859.0712 859.0587 859.0278 858.869 858.5464 858.2369 858.006 857.8273 857.6926 857.6041 857.5834 857.6232 857.6549 857.5697 857.4146 857.309 857.177 857.0333 857.0096 857.0532 857.1021 857.1039 857.0048 856.8605 856.7396 856.6612 856.5537 856.4091 856.2934 856.2204 856.1964 856.1027 855.8064 855.4404 855.0403 854.4164 853.5794 852.6932 851.8495 851.0881 850.4994 850.1422 849.8788 849.6169 849.3442 848.9843 848.4482 847.8124 847.1868 846.7092 846.5034 846.549 846.6718 846.707 846.4771 845.9453 845.2745 844.5656 843.8694 843.1566 842.415 841.6185 840.6008 839.3953 838.0917 836.7191 835.4587 834.6612 834.3602 834.3423 834.468 834.6286 834.8376 835.0693 835.2736 835.4524 835.5002 835.3318 835.05 834.918 835.056 835.1862 835.1835 835.0568 834.8679 834.7151 834.6302 834.3692 833.9713 833.5588 833.1873 832.8269 832.3092 831.8251 831.8125 832.1804 832.6442 833.1406 833.6824 834.2586 834.8389 835.2885 835.4618 835.5025 835.4426 835.0686 834.5524 833.8551 833.0466 832.3121 831.6556 830.9684 830.2421
858.3608 858.4323 858.5566 858.8367 859.2143 859.4143 859.4701 859.5177 859.5765 859.6429 859.6897 859.7002 859.6804 859.6449 859.6195 859.6193 859.6187 859.6219 859.6592 859.7025 859.718 859.7167 859.7512 859.7916 859.7744 859.6812 859.5945 859.5557 859.4438 859.2108 859.0364 858.9347 858.9218 859.0345 859.2408 859.3813 859.3726 859.3107 859.3309 859.4061 859.4047 859.2991 859.1641 859.069 858.9277 858.653 858.3877 858.1951 858.101 858.0612 858.0378 858.0652 858.144 858.188 858.0614 857.8459 857.7069 857.618 857.553 857.5101 857.4754 857.4322 857.3369 857.168 856.9928 856.8473 856.7252 856.6034 856.4787 856.3606 856.2823 856.257 856.2179 856.0928 855.8756 855.512 854.8693 854.037 853.1991 852.3557 851.4895 850.7809 850.3716 850.0986 849.8312 849.5257 849.099 848.5494 848.0026 847.5634 847.3087 847.2897 847.4125 847.5104 847.4655 847.1785 846.5891 845.8079 844.9661 844.184 843.4478 842.6786 841.8239 840.7909 839.6145 838.4172 837.1548 835.8616 834.9299 834.5992 834.6354 834.7774 834.928 835.1292 835.3865 835.5997 835.7342 835.7561 835.6736 835.5594 835.5099 835.5757 835.634 835.5488 835.2805 834.8948 834.529 834.2783 833.9822 833.5896 833.1818 832.8264 832.5711 832.3586 832.244 832.4442 832.9197 833.4987 834.1145 834.7059 835.3011 835.8525 836.1223 836.0466 835.9391 835.7418 835.3316 834.7887 834.0386 833.2456 832.595 831.9746 831.2836 830.5611
858.3697 858.4839 858.7018 859.1149 859.61 859.8564 859.9019 859.9295 859.9769 860.063 860.154 860.1628 860.063 859.8981 859.7347 859.6497 859.635 859.655 859.6894 859.7219 859.7413 859.7543 859.7868 859.8113 859.8282 859.8328 859.8415 859.8823 859.886 859.7892 859.7284 859.6807 859.6063 859.6098 859.6841 859.7352 859.7263 859.6971 859.6909 859.6707 859.5604 859.3344 859.044 858.8931 858.857 858.7468 858.5953 858.5261 858.6141 858.6671 858.6017 858.6027 858.6618 858.6592 858.5096 858.277 858.1039 857.995 857.9017 857.793 857.7125 857.6218 857.4308 857.191 857.0104 856.8514 856.6882 856.556 856.4709 856.3994 856.3445 856.3322 856.3174 856.2753 856.1841 855.9059 855.3123 854.5364 853.7603 852.9357 851.939 851.0287 850.5262 850.2396 849.9688 849.6611 849.2407 848.7246 848.2959 848.1141 848.0885 848.1472 848.254 848.2574 848.0909 847.7567 847.1605 846.3585 845.4773 844.5921 843.7704 842.9712 842.0952 841.106 840.0709 838.9839 837.7476 836.4567 835.4734 835.0367 835.0324 835.1736 835.3223 835.4797 835.6699 835.8604 835.9689 835.9373 835.8339 835.8231 835.9379 836.0569 836.0779 835.9025 835.5054 834.9689 834.4517 834.0226 833.6693 833.2958 832.9148 832.6083 832.4543 832.533 832.83 833.2784 833.8491 834.5148 835.1584 835.7261 836.2983 836.7178 836.7286 836.5084 836.2606 835.8765 835.3948 834.8278 834.1189 833.4301 832.847 832.2319 831.5738 830.9495
858.4139 858.6453 859.0266 859.5677 860.1506 860.5162 860.6115 860.629 860.7081 860.83 860.8765 860.7982 860.6275 860.3909 860.0837 859.8333 859.7443 859.7448 859.7576 859.7712 859.7816 859.7894 859.8073 859.8287 859.8594 859.8813 859.9069 859.9739 860.0357 860.0443 860.0682 860.0992 860.0598 859.993 859.962 859.9722 859.9835 859.9792 859.947 859.84 859.7066 859.485 859.1058 858.9135 858.9489 859.037 859.0809 859.103 859.1852 859.1979 859.1115 859.0879 859.0905 859.0416 858.9173 858.704 858.5023 858.3633 858.2345 858.0663 857.9167 857.701 857.2862 856.8807 856.6873 856.5582 856.4338 856.3679 856.3997 856.4097 856.3849 856.3965 856.4034 856.3796 856.313 856.1097 855.6812 855.0605 854.3549 853.4878 852.3625 851.2882 850.6288 850.2879 850.0226 849.7337 849.4191 849.0975 848.9149 848.9006 848.9203 848.918 848.8647 848.7103 848.4521 848.0947 847.5694 846.8364 845.9953 845.1052 844.1695 843.2556 842.3734 841.4868 840.5564 839.5186 838.3467 837.1368 836.0927 835.497 835.3924 835.5062 835.6625 835.8231 835.9764 836.1144 836.2072 836.1489 836.0096 836.0653 836.2756 836.4583 836.4581 836.1568 835.6019 835.0004 834.4644 833.9838 833.5811 833.2375 832.9469 832.7607 832.7683 833.057 833.5289 834.1346 834.8337 835.5588 836.1937 836.7266 837.1511 837.2874 837.092 836.7635 836.3665 835.8709 835.3342 834.7639 834.1979 833.686 833.2009 832.6549 832.1017 831.5795
858.5803 859.0212 859.6044 860.2293 860.8433 861.2923 861.5005 861.558 861.5968 861.6605 861.6462 861.4846 861.2334 860.9608 860.6552 860.3766 860.1878 860.0632 859.9752 859.9134 859.8618 859.8189 859.8072 859.8289 859.8674 859.8957 859.9263 859.9904 860.0471 860.063 860.1009 860.1545 860.1643 860.1523 860.1415 860.1476 860.1453 860.1197 860.1138 860.0556 859.9659 859.8316 859.5707 859.376 859.3693 859.485 859.5988 859.6617 859.691 859.6252 859.4965 859.407 859.3481 859.2975 859.2267 859.0613 858.8408 858.6874 858.5332 858.2997 858.0511 857.6574 857.0692 856.5327 856.256 856.1378 856.0936 856.1113 856.2305 856.339 856.3755 856.4168 856.4562 856.4551 856.389 856.2168 855.9246 855.4522 854.824 853.9475 852.7976 851.6292 850.7787 850.3672 850.1127 849.8105 849.5685 849.5349 849.6486 849.6615 849.5159 849.2902 849.0298 848.7636 848.4671 848.0714 847.5931 846.9918 846.284 845.4727 844.5045 843.4801 842.5706 841.7271 840.8131 839.7711 838.6378 837.5117 836.5388 835.9604 835.7792 835.8007 835.9291 836.1033 836.2681 836.3835 836.412 836.3167 836.1932 836.2419 836.3895 836.527 836.4874 836.0914 835.4982 834.9783 834.5225 834.0958 833.7188 833.3769 833.1028 833.0362 833.2413 833.6389 834.218 834.9634 835.7806 836.5014 837.054 837.4796 837.6269 837.4072 837.0622 836.6842 836.2509 835.7592 835.2188 834.6924 834.2756 833.9157 833.5447 833.1459 832.7272 832.2784
859.0582 859.5 860.2234 860.9563 861.6005 862.0905 862.3815 862.5087 862.5343 862.5222 862.4354 862.2226 861.9015 861.5927 861.3577 861.1427 860.8781 860.5519 860.2659 860.0626 859.918 859.8056 859.751 859.7795 859.8535 859.8984 859.9297 859.9916 860.0496 860.0728 860.1101 860.1596 860.1808 860.1932 860.2074 860.2292 860.2324 860.207 860.1988 860.2236 860.2205 860.1857 860.0812 859.9418 859.9066 859.9683 860.0187 860.0096 859.9418 859.8329 859.7033 859.6026 859.545 859.5074 859.4673 859.3602 859.1488 858.9457 858.7471 858.4564 858.067 857.5066 856.8468 856.2415 855.8615 855.7495 855.7899 855.8981 856.0577 856.2286 856.3458 856.4022 856.4457 856.4839 856.4571 856.3143 856.0964 855.793 855.283 854.3971 853.2488 852.0729 851.1229 850.6462 850.3267 849.965 849.7668 849.8816 850.1332 850.1854 849.9673 849.5806 849.094 848.6726 848.2589 847.673 847.0787 846.5844 846.0598 845.3976 844.5666 843.6011 842.6322 841.732 840.838 839.9229 838.9527 837.912 836.9827 836.4444 836.2239 836.1434 836.2101 836.3628 836.5115 836.5847 836.5223 836.3871 836.3156 836.3539 836.3273 836.1956 835.9723 835.5837 835.1682 834.8883 834.608 834.2729 833.9225 833.5816 833.3362 833.3599 833.6699 834.1923 834.9857 835.8764 836.6611 837.2211 837.5829 837.7416 837.6229 837.2849 836.8893 836.4791 836.0298 835.5539 835.0915 834.6609 834.338 834.05 833.7466 833.4454 833.1379 832.8154
860.0963 860.3634 860.9257 861.5663 862.1805 862.7244 863.1329 863.3624 863.4068 863.3828 863.2866 863.0231 862.6373 862.2645 862.0183 861.7925 861.4726 861.0353 860.5544 860.183 859.9868 859.8414 859.739 859.7481 859.8307 859.8705 859.9041 859.9821 860.0441 860.0808 860.1183 860.1563 860.1884 860.2181 860.2418 860.2598 860.2724 860.2693 860.2691 860.3078 860.3481 860.3926 860.4136 860.372 860.3467 860.3367 860.2864 860.1821 860.0427 859.9076 859.7994 859.7354 859.6999 859.6762 859.6499 859.553 859.3575 859.1267 858.8514 858.427 857.847 857.196 856.5398 855.9114 855.4817 855.4121 855.5333 855.7188 855.9365 856.1804 856.3839 856.4808 856.5255 856.5519 856.525 856.418 856.3467 856.2274 855.7799 854.863 853.7319 852.6181 851.6125 850.95 850.4885 850.1068 850.0251 850.1755 850.417 850.5529 850.3442 849.7991 849.1228 848.5309 847.8849 847.1216 846.4224 845.9121 845.4822 845.0198 844.4115 843.6037 842.7026 841.8184 840.9233 840.0558 839.2159 838.2908 837.4191 836.8977 836.6382 836.5123 836.5225 836.6046 836.6619 836.6752 836.6464 836.5658 836.4836 836.4255 836.2954 836.0665 835.7296 835.3228 835.005 834.8422 834.7212 834.502 834.1685 833.8536 833.7372 833.8975 834.3306 835.0397 835.8733 836.6732 837.2984 837.6703 837.78 837.6094 837.3043 836.9272 836.52 836.0992 835.6456 835.2205 834.903 834.5831 834.3091 834.104 833.9222 833.7319 833.5221 833.3233
861.0688 861.3599 861.7304 862.1455 862.6246 863.1367 863.6296 863.9622 864.0059 864.0085 864.0272 863.7462 863.2846 862.8784 862.6294 862.374 861.9333 861.308 860.6646 860.2314 860.0517 859.9323 859.7986 859.7729 859.8291 859.8243 859.8442 859.9606 860.0476 860.0798 860.1111 860.1494 860.2012 860.2439 860.2649 860.2802 860.2943 860.3055 860.3179 860.34 860.3689 860.414 860.4586 860.4997 860.5298 860.5203 860.4878 860.4113 860.2504 860.0543 859.9386 859.9108 859.8924 859.8679 859.8366 859.7132 859.4748 859.1481 858.6985 858.082 857.3536 856.6532 856.0371 855.4821 855.1072 855.0828 855.2836 855.5319 855.7808 856.0582 856.3662 856.6004 856.7176 856.7538 856.6764 856.614 856.7101 856.6559 856.1811 855.2614 854.0941 852.8714 851.7929 851.1046 850.6284 850.3005 850.312 850.5038 850.722 850.832 850.5573 849.8645 849.063 848.3191 847.5015 846.5874 845.7828 845.2303 844.8378 844.4924 844.0935 843.5087 842.7702 841.9824 841.1295 840.2416 839.3942 838.5597 837.7869 837.282 836.9974 836.8647 836.8203 836.7972 836.7625 836.7524 836.764 836.6989 836.5765 836.4474 836.2836 836.1016 835.8412 835.4639 835.1669 835.0253 834.9331 834.7556 834.4349 834.1921 834.2277 834.5016 835.0448 835.8124 836.5216 837.1736 837.6763 837.8564 837.6685 837.2698 836.856 836.4359 836.0073 835.5408 835.1117 834.827 834.6839 834.4656 834.2233 834.0789 834.0677 834.0749 834.0123 833.9249
861.7886 862.3334 862.7057 863.019 863.3484 863.7055 864.1299 864.4567 864.4429 864.2994 864.268 864.0764 863.7102 863.411 863.2389 862.9482 862.297 861.4169 860.7047 860.3791 860.2452 860.0782 859.8606 859.7747 859.804 859.8176 859.8849 860.0126 860.0797 860.067 860.0497 860.062 860.0979 860.1469 860.1912 860.2344 860.2734 860.3101 860.3297 860.3438 860.367 860.406 860.4647 860.5314 860.575 860.6025 860.6103 860.5626 860.4144 860.2265 860.1589 860.1677 860.1637 860.1357 860.0735 859.8786 859.5011 858.9545 858.3033 857.6303 856.9634 856.3376 855.8018 855.3159 854.8929 854.7424 854.9017 855.1626 855.452 855.7991 856.2127 856.5814 856.8399 857.009 857.0018 856.9118 856.8871 856.7628 856.2697 855.3685 854.1835 852.9452 851.8853 851.2431 850.9113 850.7231 850.7217 850.8708 851.0214 850.9895 850.5917 849.8583 848.9745 848.1002 847.1619 846.0978 845.1888 844.6177 844.2455 843.9354 843.6249 843.2718 842.8297 842.247 841.4624 840.5552 839.6365 838.771 838.0441 837.5479 837.2811 837.191 837.1201 837.002 836.9119 836.8915 836.8889 836.7682 836.605 836.4705 836.3477 836.2135 836.0197 835.7573 835.5174 835.3591 835.2214 835.0233 834.7471 834.5925 834.6891 835.0575 835.7419 836.5339 837.1161 837.6029 837.8933 837.7829 837.3687 836.8814 836.4017 835.9321 835.4639 834.9606 834.6631 834.5929 834.5221 834.3174 834.0753 833.9078 833.9304 834.085 834.233 834.3988
862.7711 863.4065 863.7125 863.9758 864.2885 864.5888 864.873 865.0258 864.8605 864.5593 864.3959 864.2205 864.0474 864.0012 863.9267 863.6125 862.8972 861.929 861.1403 860.8121 860.584 860.2327 859.9097 859.7825 859.7895 859.8628 860.0142 860.1512 860.1634 860.0756 859.9502 859.8517 859.7822 859.7991 859.9089 859.9904 860.0566 860.1825 860.2875 860.3334 860.3604 860.4155 860.4985 860.5615 860.5942 860.6225 860.6334 860.5972 860.5007 860.3978 860.3948 860.4259 860.4275 860.3791 860.2663 860.0378 859.5961 858.9026 858.1494 857.5281 857.0969 856.7431 856.3331 855.7824 855.1177 854.6406 854.6019 854.8358 855.1697 855.572 856.0475 856.5683 857.0117 857.3025 857.4045 857.2753 857.0308 856.7672 856.2677 855.3112 854.0654 852.8516 851.9218 851.4705 851.2834 851.1713 851.1451 851.2271 851.2063 850.923 850.4047 849.7269 848.8604 847.8976 846.8072 845.6516 844.7161 844.0867 843.6457 843.3578 843.1334 842.9558 842.7878 842.4142 841.7462 840.8855 839.9578 839.0491 838.2636 837.7332 837.5114 837.5044 837.4773 837.3032 837.1408 837.0434 836.9394 836.7742 836.61 836.5137 836.4847 836.4363 836.2941 836.0784 835.8773 835.7104 835.5179 835.2876 835.0928 835.0573 835.231 835.722 836.476 837.2269 837.7101 837.9518 837.873 837.4714 836.9641 836.4444 835.8799 835.3315 834.8469 834.4968 834.4947 834.5345 834.4015 834.158 833.9103 833.709 833.6304 833.8124 834.2358 834.8284
863.9287 864.501 864.7197 864.9418 865.2369 865.4818 865.6302 865.5902 865.2652 864.8528 864.5607 864.3925 864.4056 864.5847 864.6147 864.2925 863.5345 862.5206 861.6168 861.0945 860.71 860.2982 859.964 859.8422 859.8667 859.9952 860.1824 860.3243 860.303 860.1151 859.8619 859.6745 859.5628 859.5552 859.6423 859.6562 859.7042 859.9089 860.1163 860.2344 860.3219 860.4351 860.5497 860.5979 860.6036 860.6102 860.6342 860.6146 860.5665 860.5467 860.571 860.6006 860.598 860.5234 860.4073 860.2912 860.0311 859.4294 858.7095 858.1563 857.7828 857.4453 856.9761 856.3096 855.5015 854.7832 854.5246 854.6541 854.965 855.3818 855.9318 856.5978 857.1783 857.5609 857.7552 857.6789 857.3577 856.8592 856.1354 855.0551 853.7682 852.5518 851.8271 851.7139 851.6874 851.5944 851.528 851.4605 851.1935 850.7111 850.1198 849.479 848.6745 847.7072 846.5488 845.3561 844.3978 843.6918 843.1951 842.9354 842.8415 842.7991 842.6655 842.3279 841.8109 841.0989 840.2401 839.3268 838.4662 837.8647 837.6562 837.7087 837.7602 837.6213 837.403 837.1946 836.9915 836.819 836.6732 836.5723 836.53 836.5178 836.4412 836.2929 836.1683 836.0068 835.7922 835.5782 835.4704 835.5816 835.8941 836.421 837.111 837.7795 838.1548 838.1312 837.6874 837.0709 836.488 835.9014 835.2039 834.5784 834.2202 834.1815 834.412 834.4431 834.2547 833.9947 833.7351 833.5323 833.4699 833.7675 834.4784 835.3939
865.0971 865.6028 865.741 865.8853 866.0999 866.2457 866.2543 866.0192 865.5755 865.1072 864.7687 864.6873 864.8671 865.1572 865.2355 864.8884 864.0877 862.9445 861.8046 861.0938 860.6501 860.2505 859.9896 859.9518 860.0007 860.1469 860.3542 860.4974 860.4341 860.1714 859.85 859.6111 859.5159 859.5359 859.577 859.5473 859.6047 859.7824 859.9573 860.0929 860.251 860.4291 860.5462 860.5745 860.5781 860.5968 860.6401 860.6284 860.5828 860.5675 860.5823 860.6136 860.6371 860.6022 860.521 860.4744 860.3848 859.9966 859.4042 858.9301 858.5535 858.1437 857.5786 856.8228 855.9277 855.1014 854.7601 854.7782 854.9518 855.3222 855.9348 856.6319 857.2272 857.6265 857.8318 857.8004 857.439 856.7108 855.6444 854.4141 853.174 852.1515 851.7323 851.8559 851.9914 851.9619 851.8037 851.4863 851.0077 850.4499 849.8939 849.2755 848.5234 847.605 846.4886 845.3389 844.3799 843.6843 843.1949 842.8608 842.7322 842.6732 842.4298 841.9987 841.5384 841.0125 840.3071 839.4193 838.5161 837.9048 837.7679 837.8788 837.981 837.9131 837.6827 837.4024 837.1819 837.0123 836.8549 836.722 836.6356 836.6033 836.5311 836.4252 836.3629 836.2482 836.079 835.9222 835.8658 836.0387 836.4448 836.9714 837.5722 838.132 838.3951 838.1852 837.5959 836.9047 836.2037 835.4459 834.6561 834.0178 833.7186 833.9107 834.2808 834.288 834.0927 833.8372 833.5721 833.42 833.5482 834.1351 835.1053 836.1321
866.1281 866.566 866.6301 866.6725 866.7974 866.8856 866.7864 866.403 865.8856 865.3788 865.0671 865.1491 865.4297 865.663 865.6276 865.1837 864.3217 863.1012 861.868 861.0304 860.5125 860.1468 860.009 860.0619 860.1611 860.3392 860.5452 860.6586 860.537 860.2347 859.928 859.731 859.6375 859.6094 859.6203 859.6481 859.7417 859.8862 860.0432 860.1801 860.2963 860.4167 860.4883 860.5063 860.5583 860.6292 860.6711 860.6402 860.5826 860.5447 860.5509 860.5963 860.6359 860.6338 860.5897 860.5703 860.6115 860.4894 860.0886 859.645 859.2042 858.7045 858.1057 857.3514 856.4315 855.5458 855.1179 855.0727 855.1854 855.4885 856.03 856.6409 857.1558 857.4266 857.5094 857.4178 856.944 856.1216 855.0219 853.8141 852.7428 852.0401 851.874 852.0192 852.1388 852.1182 851.8861 851.4557 850.8901 850.2667 849.6754 849.0571 848.3427 847.4562 846.4443 845.4653 844.5586 843.813 843.2809 842.8709 842.6256 842.4542 842.1049 841.6862 841.2908 840.8555 840.2301 839.3116 838.3838 837.8763 837.9008 838.0556 838.1263 838.1412 838.0299 837.8242 837.5673 837.2603 837.0327 836.8956 836.809 836.7505 836.6777 836.5869 836.4717 836.3467 836.2204 836.1621 836.2479 836.5035 836.8954 837.3552 837.8792 838.4034 838.6304 838.349 837.7251 836.9822 836.1624 835.2622 834.451 833.8687 833.602 833.7751 834.0052 833.9678 833.8625 833.6614 833.4335 833.4288 833.8402 834.6598 835.7295 836.8022
866.8376 867.1595 867.1733 867.2373 867.3968 867.4633 867.2573 866.8154 866.2939 865.8059 865.632 865.9387 866.1946 866.1588 865.8857 865.2747 864.2764 863.083 861.8837 860.9717 860.3995 860.0906 860.0629 860.1813 860.3548 860.5922 860.7537 860.7515 860.5651 860.3 860.0661 859.9228 859.839 859.762 859.7086 859.7449 859.866 860.0245 860.2012 860.3363 860.4181 860.4831 860.5319 860.5738 860.6509 860.7391 860.7639 860.6859 860.6159 860.5748 860.555 860.5887 860.6289 860.6381 860.6257 860.6428 860.7527 860.787 860.5192 860.0653 859.5735 859.0741 858.5425 857.9185 857.1296 856.2628 855.6595 855.4398 855.4565 855.6852 856.1334 856.6132 857.0258 857.1913 857.1566 856.8967 856.2653 855.424 854.4525 853.4626 852.7769 852.5147 852.4564 852.4058 852.3076 852.1588 851.8899 851.423 850.801 850.1352 849.488 848.8525 848.1267 847.2455 846.3779 845.6283 844.8101 844.0165 843.4264 842.9316 842.5486 842.3463 842.0964 841.7567 841.4164 840.9972 840.3164 839.3023 838.3564 837.9851 838.1643 838.329 838.3092 838.3301 838.2687 838.0608 837.7263 837.3485 837.1426 837.0331 836.9299 836.8429 836.8013 836.8121 836.6943 836.4896 836.3604 836.4353 836.6937 837.0192 837.3941 837.7996 838.2408 838.6998 838.879 838.5108 837.807 836.9448 836.0157 835.1943 834.5759 834.0532 833.7184 833.7101 833.6963 833.5784 833.5504 833.4358 833.303 833.4933 834.1544 835.119 836.222 837.2956
867.4747 867.7101 867.6911 867.7523 867.905 867.9945 867.7773 867.3105 866.7914 866.4161 866.4249 866.7626 866.8795 866.5913 866.1267 865.442 864.3573 863.0998 861.9022 860.987 860.4733 860.2587 860.2527 860.3932 860.6547 860.9575 861.0594 860.9263 860.6748 860.4411 860.279 860.1313 860.0141 859.9159 859.8458 859.9096 860.0738 860.2222 860.3642 860.4905 860.5833 860.6333 860.6606 860.7032 860.7776 860.8665 860.8904 860.8091 860.7667 860.7474 860.6798 860.6469 860.6637 860.6789 860.6902 860.7562 860.9075 860.9808 860.7419 860.2852 859.7917 859.3062 858.8347 858.3892 857.8508 857.153 856.4843 856.019 855.8293 855.9662 856.3075 856.5977 856.862 856.9435 856.7821 856.3265 855.5894 854.794 854.09 853.5282 853.2051 853.0902 852.9899 852.7951 852.5315 852.249 851.8953 851.3685 850.7018 850.0095 849.3289 848.6136 847.8104 846.9599 846.247 845.6671 844.9819 844.2075 843.5195 842.9227 842.5825 842.6354 842.582 842.1536 841.7039 841.2211 840.4084 839.3586 838.5402 838.3101 838.485 838.5858 838.563 838.5485 838.4343 838.1537 837.7547 837.416 837.2817 837.2061 837.1022 837.0129 837.0164 837.0693 836.9398 836.7178 836.6329 836.8628 837.314 837.7266 838.0794 838.42 838.7674 839.0812 839.0923 838.5532 837.7274 836.8572 836.0343 835.3718 834.855 834.351 833.9311 833.7392 833.6356 833.5261 833.4089 833.2994 833.2856 833.6146 834.4156 835.4839 836.6102 837.6362
868.1972 868.3395 868.2506 868.2167 868.3535 868.5399 868.3967 867.9282 867.4222 867.1931 867.2844 867.4933 867.4692 867.0563 866.4924 865.7456 864.6423 863.3934 862.2327 861.365 860.8959 860.7228 860.6948 860.8562 861.2589 861.7198 861.8829 861.7537 861.3604 860.8979 860.6105 860.3969 860.2136 860.0969 860.1352 860.4023 860.6637 860.7728 860.8398 860.9578 861.0946 861.1104 861.048 861.0549 861.1088 861.1455 861.1349 861.108 861.0997 861.0621 860.9908 860.9274 860.8813 860.861 860.8688 860.9318 861.0869 861.1905 860.9855 860.5033 859.9887 859.5045 859.0673 858.7111 858.3657 857.9296 857.3969 856.9155 856.6012 856.5562 856.6174 856.6929 856.7618 856.6851 856.3907 855.7836 855.0394 854.5061 854.1966 853.9544 853.7278 853.4865 853.2297 852.9453 852.587 852.184 851.726 851.1527 850.4667 849.7527 848.9951 848.1182 847.2465 846.5473 846.0556 845.5764 844.9841 844.2828 843.4745 842.8329 842.8405 843.3514 843.5184 842.9367 842.2173 841.4833 840.4269 839.384 838.8389 838.7043 838.6943 838.6705 838.6547 838.6038 838.4356 838.0856 837.7428 837.594 837.552 837.5 837.421 837.3641 837.3678 837.3561 837.1791 836.9729 836.9902 837.3802 838.0037 838.5682 838.9233 839.1383 839.2915 839.3093 839.0104 838.3508 837.5571 836.8299 836.2254 835.7087 835.2156 834.7345 834.3427 834.1051 834.0037 833.9609 833.7353 833.6044 833.6652 833.9692 834.7004 835.7698 836.9083 837.8553
868.9844 868.9963 868.8193 868.7188 868.8291 869.0348 868.9545 868.5677 868.1323 867.9245 867.9385 868.0548 868.0223 867.5778 866.9319 866.1246 865.0358 863.828 862.7421 861.9954 861.6097 861.5007 861.504 861.6803 862.2264 862.8669 863.019 862.7034 862.1288 861.5 861.028 860.7534 860.5953 860.5594 860.8177 861.3396 861.7296 861.9531 862.0872 862.2101 862.3416 862.2922 862.0672 861.9334 861.8705 861.7468 861.5789 861.4985 861.4997 861.4988 861.5258 861.5178 861.3716 861.1893 861.1011 861.1251 861.2743 861.4266 861.2821 860.7398 860.1787 859.7173 859.3333 859.0051 858.6802 858.3453 858.0467 857.7964 857.5048 857.2569 857.0654 856.9448 856.7634 856.4004 855.9423 855.3384 854.8472 854.7671 854.7308 854.5248 854.2147 853.8052 853.3535 852.919 852.4166 851.8651 851.2894 850.6228 849.8809 849.1401 848.3552 847.4448 846.6173 846.0929 845.7928 845.4456 844.9565 844.3362 843.6501 843.2673 843.5211 844.1956 844.5348 843.9349 842.8547 841.6809 840.4199 839.3908 838.982 838.8746 838.7769 838.6857 838.626 838.5384 838.326 838.0739 838.0137 838.0691 838.0503 837.9262 837.7982 837.798 837.7951 837.6379 837.3649 837.2267 837.4034 837.9594 838.7315 839.4057 839.6794 839.6149 839.4337 839.1663 838.7721 838.224 837.5704 837.0141 836.602 836.1418 835.6373 835.2488 835.009 834.8321 834.6934 834.6208 834.3903 834.3004 834.3722 834.5208 834.9883 835.9164 836.9646 837.7908
869.7061 869.5969 869.3586 869.2432 869.334 869.5092 869.4749 869.2004 868.8918 868.6792 868.5755 868.5937 868.5261 868.0531 867.3305 866.4608 865.4367 864.312 863.3407 862.8318 862.7202 862.7778 862.8512 863.0336 863.548 864.1008 864.063 863.5327 862.874 862.1769 861.5713 861.365 861.4651 861.6838 862.0999 862.6185 863.0315 863.3728 863.549 863.6449 863.7386 863.6586 863.2816 862.8723 862.56 862.2979 862.0647 861.9615 862.0358 862.1454 862.2185 862.1707 861.9476 861.6979 861.5132 861.4253 861.4902 861.6555 861.5717 860.9921 860.3789 859.937 859.6124 859.3003 858.9741 858.6725 858.515 858.5033 858.2855 857.8838 857.539 857.2423 856.8187 856.2256 855.6189 855.1823 855.0662 855.2466 855.3021 855.0441 854.6151 854.0786 853.413 852.713 852.0155 851.3341 850.6586 849.9333 849.1674 848.4135 847.745 847.0109 846.2249 845.7145 845.5143 845.345 844.9949 844.522 844.1092 844.0251 844.3758 845.0203 845.3455 844.7097 843.3707 841.9213 840.5585 839.5444 839.1786 839.0582 838.8784 838.7045 838.564 838.3786 838.1949 838.2358 838.4504 838.6414 838.6324 838.4138 838.2053 838.2104 838.1893 837.9363 837.6034 837.5723 837.9297 838.5666 839.3423 840.0163 840.2821 840.1729 839.8538 839.3616 838.8203 838.3401 837.8804 837.4703 837.0663 836.5706 836.0637 835.7321 835.5795 835.478 835.3504 835.2426 835.0332 834.9459 834.9264 834.8764 835.07 835.8143 836.7356 837.4789
870.2413 870.09 869.8442 869.7047 869.7251 869.8503 869.8893 869.7358 869.5152 869.317 869.2358 869.2328 868.9962 868.3926 867.576 866.6519 865.7264 864.804 864.137 863.9471 864.0199 864.1404 864.2445 864.4524 864.9363 865.2595 864.9434 864.3021 863.6285 862.9594 862.4862 862.5011 862.7874 863.1175 863.5588 863.9824 864.3495 864.7418 864.9649 865.0673 865.1387 864.9979 864.4655 863.8073 863.2659 862.8856 862.6508 862.6263 862.7755 862.8807 862.8983 862.7925 862.5268 862.282 862.1097 861.959 861.855 861.8981 861.8218 861.2761 860.6201 860.1832 859.8958 859.5972 859.284 859.0348 859.0032 859.137 859.0217 858.5575 858.0426 857.5815 857.0162 856.3588 855.8234 855.6525 855.7266 855.8195 855.7546 855.4236 854.8982 854.2045 853.3693 852.5679 851.8153 851.0609 850.2695 849.4316 848.6082 847.8289 847.1876 846.5953 846.0339 845.6818 845.5521 845.4784 845.3445 845.1646 845.0023 844.9691 845.2305 845.6595 845.7227 845.0034 843.6548 842.1795 840.803 839.8036 839.4235 839.2442 839.0296 838.8267 838.5782 838.24 838.0735 838.2905 838.6904 839.0472 839.1434 838.9714 838.7697 838.6649 838.5543 838.3456 838.1293 838.1953 838.6378 839.2546 839.9585 840.6117 840.891 840.6705 840.0942 839.4918 839.0491 838.6796 838.3261 837.9293 837.4412 836.9264 836.4637 836.1069 835.8746 835.7606 835.6873 835.628 835.4801 835.3461 835.1875 834.9568 834.949 835.5707 836.4468 837.1722
870.6153 870.4955 870.2711 870.087 870.0313 870.1163 870.1662 870.0252 869.8162 869.7121 869.7952 869.7814 869.3474 868.619 867.7292 866.7554 865.8558 865.2114 865.0305 865.1616 865.3313 865.4819 865.6075 865.8212 866.1984 866.3052 865.9045 865.2555 864.5762 863.9999 863.7476 863.8726 864.1921 864.5715 864.9872 865.3531 865.6946 866.0503 866.2472 866.3444 866.3994 866.1947 865.5862 864.8588 864.1998 863.6973 863.4673 863.4969 863.61 863.6317 863.5281 863.3453 863.0935 862.9111 862.7721 862.6373 862.4779 862.3214 862.1285 861.5905 860.9083 860.4985 860.2159 859.9121 859.6084 859.4161 859.511 859.7549 859.7557 859.3041 858.676 858.0659 857.4369 856.8241 856.4329 856.3753 856.371 856.2073 855.9448 855.5767 854.962 854.1396 853.2739 852.476 851.7214 850.9714 850.1615 849.2117 848.2318 847.427 846.8893 846.5637 846.4312 846.393 846.3831 846.3933 846.3856 846.2928 846.1493 846.007 845.9235 845.9799 845.906 845.1859 843.8792 842.4282 841.0735 840.0928 839.6544 839.417 839.1877 838.9676 838.6968 838.4761 838.5182 838.7319 839.0468 839.4374 839.6907 839.6253 839.3837 839.1192 838.8931 838.7457 838.7158 838.9406 839.4236 839.9936 840.6091 841.1245 841.2228 840.83 840.1825 839.6939 839.3428 838.9711 838.5868 838.1624 837.6805 837.2395 836.8654 836.5128 836.1957 835.9983 835.9091 835.8721 835.7563 835.6043 835.4209 835.1422 835.0214 835.5586 836.4151 837.1151
871.0826 870.9436 870.7156 870.5039 870.4198 870.4799 870.481 870.3131 870.1435 870.1754 870.3557 870.2334 869.5832 868.691 867.7125 866.7437 865.8926 865.4158 865.6019 866.0794 866.4509 866.691 866.8599 867.0097 867.1659 867.1871 866.9597 866.4781 865.8995 865.4055 865.1667 865.2401 865.566 865.97 866.3165 866.5994 866.9286 867.2413 867.3906 867.4512 867.4513 867.192 866.5642 865.8313 865.1619 864.6768 864.4738 864.4441 864.4492 864.3578 864.1245 863.8461 863.6352 863.5502 863.4592 863.3675 863.2499 862.9965 862.6463 862.0609 861.3411 860.8806 860.5531 860.234 859.9469 859.8345 860.0346 860.3277 860.3911 860.007 859.3598 858.6736 858.0183 857.4513 857.0895 856.929 856.7343 856.386 855.955 855.534 854.9818 854.1935 853.3014 852.453 851.6607 850.8948 850.1131 849.2104 848.2092 847.4968 847.2538 847.2877 847.4385 847.4966 847.4857 847.5032 847.5242 847.4398 847.29 847.1656 846.9484 846.7001 846.3202 845.3492 843.9613 842.5489 841.3024 840.3698 839.8394 839.5533 839.3354 839.1252 839.0146 839.1499 839.3716 839.5411 839.7315 839.9988 840.2039 840.1324 839.8691 839.5823 839.413 839.4259 839.544 839.806 840.2225 840.7244 841.2521 841.5865 841.4786 840.9905 840.4146 840.0344 839.6828 839.2798 838.8543 838.3832 837.8874 837.4938 837.1895 836.8865 836.5577 836.2822 836.1392 836.1009 836.023 835.9412 835.8208 835.6389 835.6043 836.0385 836.783 837.441
871.6723 871.479 871.231 871.0004 870.8799 870.8889 870.8472 870.6745 870.5961 870.7772 870.9026 870.5087 869.6019 868.5084 867.4716 866.6317 865.94 865.6246 866.0078 866.6814 867.2559 867.6133 867.8044 867.8837 867.8672 867.7997 867.6611 867.4081 867.062 866.7518 866.6051 866.6476 866.9027 867.2284 867.4626 867.6762 867.9882 868.2813 868.442 868.4832 868.4012 868.0415 867.3587 866.6472 866.0779 865.676 865.4589 865.389 865.2783 865.0005 864.6245 864.2585 864.0727 864.1232 864.1655 864.1553 864.0599 863.7722 863.3854 862.8299 862.106 861.4659 860.9473 860.5671 860.3274 860.3117 860.4907 860.6592 860.6785 860.4725 859.9786 859.347 858.7231 858.1113 857.5828 857.2407 856.9014 856.4096 855.9457 855.611 855.1591 854.4052 853.4694 852.5557 851.6932 850.8673 850.0751 849.226 848.3983 847.9863 847.9826 848.1832 848.4632 848.5867 848.5903 848.5853 848.5533 848.4248 848.3369 848.3882 848.1708 847.6366 846.7885 845.4789 844.0168 842.6486 841.474 840.5808 839.9768 839.6187 839.4552 839.4678 839.7072 840.0687 840.3047 840.4498 840.6005 840.7673 840.8461 840.6434 840.2777 839.974 839.9515 840.1942 840.4274 840.7143 841.1116 841.5449 841.9354 842.0531 841.7523 841.2397 840.7679 840.4028 840.0231 839.6156 839.1778 838.6607 838.1104 837.6725 837.34 837.0247 836.7106 836.426 836.244 836.2244 836.1962 836.1598 836.1703 836.3063 836.5605 836.9149 837.4543 838.0419
872.1635 872.0082 871.7925 871.5595 871.4065 871.3787 871.3141 871.1661 871.1366 871.2681 871.1846 870.4984 869.4262 868.3002 867.3112 866.5568 866.0137 866.0107 866.7006 867.4866 868.0452 868.3972 868.5517 868.5756 868.4653 868.3098 868.166 868.0149 867.856 867.7913 867.8212 867.9099 868.1198 868.3596 868.5278 868.7251 869.0401 869.314 869.4369 869.3718 869.135 868.725 868.1199 867.5361 867.0864 866.7107 866.4379 866.2919 866.0574 865.6757 865.2 864.6794 864.416 864.5856 864.8194 864.8799 864.7792 864.5009 864.0898 863.5425 862.8538 862.1042 861.4274 860.9432 860.6788 860.6489 860.6846 860.6903 860.7043 860.6959 860.4862 860.0184 859.3772 858.6578 858.015 857.5274 856.996 856.3909 855.9969 855.7725 855.3489 854.6296 853.6809 852.7355 851.8468 850.9656 850.1075 849.3023 848.7336 848.6459 848.8759 849.149 849.393 849.518 849.5679 849.5012 849.3442 849.2156 849.288 849.4109 849.067 848.3015 847.1742 845.6366 844.1022 842.7715 841.6259 840.7553 840.1354 839.7349 839.725 840.1042 840.6086 841.0236 841.249 841.3854 841.5013 841.5754 841.4589 841.0409 840.5911 840.3602 840.5433 840.9625 841.2971 841.627 842.0273 842.4537 842.687 842.4365 841.9169 841.4282 841.0519 840.71 840.3364 839.9434 839.5065 838.9565 838.3615 837.8461 837.4034 836.969 836.5548 836.1898 835.9968 836.0642 836.1844 836.2258 836.3627 836.747 837.2184 837.6928 838.2578 838.8431
872.6022 872.5035 872.332 872.1347 871.9854 871.9293 871.8505 871.7251 871.6448 871.6024 871.2619 870.3787 869.2443 868.1835 867.2823 866.5922 866.2335 866.5192 867.4046 868.3599 868.9395 869.1515 869.213 869.2223 869.1039 868.9035 868.7609 868.7445 868.742 868.7641 868.7818 868.8354 869.0219 869.2539 869.4466 869.6605 869.9427 870.1395 870.1462 869.9548 869.6265 869.2647 868.8886 868.503 868.1165 867.7359 867.4409 867.2803 867.0521 866.6747 866.0976 865.3987 865.0411 865.1736 865.3602 865.4112 865.3534 865.0909 864.6277 864.0471 863.3637 862.6349 861.9713 861.4 860.9789 860.7851 860.7398 860.7309 860.7269 860.7645 860.7731 860.5063 859.883 859.155 858.4855 857.875 857.2073 856.5632 856.1858 855.9615 855.5557 854.8787 853.9344 852.9398 852.0244 851.1418 850.2617 849.5812 849.3557 849.4741 849.8331 850.1345 850.2902 850.3569 850.386 850.267 850.0833 850.0381 850.1401 850.017 849.5049 848.7242 847.5511 845.9311 844.2682 842.8417 841.6833 840.8589 840.3292 840.1596 840.4767 841.0117 841.5272 841.9617 842.194 842.2785 842.2896 842.2322 841.9877 841.436 840.8946 840.7305 841.1352 841.7421 842.17 842.5386 842.9493 843.3477 843.403 842.8347 842.139 841.6573 841.2617 840.8441 840.4551 840.1081 839.7116 839.1592 838.5295 837.9562 837.4705 837.0083 836.4941 835.9977 835.801 835.9114 836.0998 836.2302 836.4436 836.92 837.5859 838.3229 839.0814 839.7302
872.9958 872.9227 872.7183 872.5474 872.4855 872.4779 872.3926 872.1865 871.9619 871.7164 871.0905 870.1046 869.0981 868.1974 867.4118 866.8724 866.7302 867.2159 868.1223 869.038 869.6249 869.795 869.8245 869.8251 869.7054 869.5049 869.3568 869.3727 869.4507 869.4998 869.5316 869.5825 869.6594 869.7942 869.9786 870.1827 870.3593 870.4359 870.404 870.2744 870.0717 869.884 869.6904 869.4166 869.0637 868.6989 868.4347 868.3544 868.213 867.733 866.9642 866.2251 865.8762 865.8564 865.8408 865.8336 865.7817 865.5025 865.0439 864.4882 863.8349 863.1578 862.5184 861.9 861.3655 861.0278 860.8735 860.8044 860.7625 860.7687 860.8476 860.7812 860.342 859.7233 859.06 858.3641 857.6989 857.0984 856.6119 856.2598 855.8469 855.1608 854.1953 853.1481 852.2087 851.3306 850.4807 849.9942 850.0854 850.3427 850.7078 850.9457 851.0269 851.1204 851.1564 851.0378 850.9108 850.9008 850.8061 850.3513 849.7161 848.9891 847.8549 846.222 844.4803 842.9275 841.7321 840.9962 840.7015 840.8755 841.4107 842.0067 842.4813 842.837 842.9872 842.9564 842.8772 842.7746 842.4933 841.9267 841.4634 841.5559 842.1768 842.8137 843.224 843.5438 843.9047 844.1755 843.9644 843.1963 842.3878 841.8383 841.3727 840.8922 840.4374 840.0522 839.6645 839.1663 838.591 838.0114 837.4713 836.9726 836.3859 835.8655 835.8374 836.1051 836.2399 836.4024 836.8105 837.5074 838.3625 839.1958 839.9214 840.5201
873.4334 873.372 873.0746 872.8844 872.9205 873.0019 872.8806 872.4984 872.0511 871.6785 870.9943 870.0028 869.0613 868.2398 867.5519 867.155 867.2341 867.8412 868.6912 869.5493 870.1728 870.3876 870.4338 870.3907 870.2243 870.0044 869.8495 869.8606 869.9173 869.9149 869.9497 870.0431 870.1082 870.1456 870.2074 870.3348 870.4864 870.5708 870.5533 870.5627 870.6057 870.5792 870.4879 870.2977 869.9817 869.6519 869.4716 869.4351 869.227 868.6132 867.7844 867.0582 866.6635 866.4573 866.2944 866.241 866.1691 865.866 865.411 864.8863 864.2805 863.6424 863.0082 862.4143 861.9139 861.5332 861.2219 860.9606 860.825 860.8019 860.8677 860.9287 860.8006 860.3786 859.7325 859.0486 858.4205 857.7961 857.1859 856.6669 856.1478 855.3946 854.413 853.3206 852.3037 851.4038 850.7239 850.5325 850.8136 851.1668 851.4887 851.6416 851.6586 851.7847 851.8741 851.7841 851.6306 851.4178 851.0517 850.4495 849.7032 848.9595 847.9021 846.3055 844.5984 843.1352 841.9998 841.3733 841.3209 841.7739 842.4365 843.0642 843.4802 843.6303 843.6234 843.5382 843.429 843.295 842.983 842.4946 842.3399 842.7896 843.4813 844.0938 844.5124 844.7184 844.8861 844.8911 844.3572 843.4402 842.5734 841.944 841.4397 840.9508 840.4633 840.0118 839.5984 839.14 838.6309 838.0797 837.4915 836.9338 836.3576 835.919 835.9718 836.2926 836.5305 836.8783 837.5712 838.4684 839.346 840.0643 840.6647 841.2042
874.0117 873.9724 873.6667 873.4213 873.4126 873.4277 873.2411 872.8024 872.2268 871.6641 870.9263 870.0098 869.1233 868.3928 867.9045 867.6997 867.9168 868.5426 869.3157 870.0856 870.6788 870.9478 871.0222 870.929 870.7289 870.501 870.3331 870.3178 870.338 870.3347 870.439 870.5685 870.6282 870.6082 870.5364 870.5574 870.754 870.9036 870.8852 870.944 871.1176 871.206 871.195 871.0717 870.7999 870.5259 870.4103 870.334 870.0018 869.3274 868.5184 867.7977 867.2856 866.9333 866.7215 866.6564 866.5502 866.192 865.7143 865.2085 864.6469 864.0345 863.4594 862.9868 862.5692 862.1709 861.7192 861.2603 860.9763 860.8981 860.9453 861.02 861.0514 860.8748 860.3815 859.7651 859.1113 858.3661 857.6304 856.9832 856.3073 855.4435 854.454 853.3606 852.2555 851.3807 851.0541 851.2188 851.6141 851.9591 852.1688 852.3152 852.4164 852.5389 852.5806 852.4023 852.0249 851.594 851.1844 850.6622 849.8746 848.93 847.7805 846.3055 844.8016 843.5143 842.5386 842.1156 842.2768 842.8427 843.5103 844.0601 844.3531 844.4142 844.314 844.156 843.9935 843.7841 843.3853 843.0021 843.1683 843.7411 844.3646 844.9355 845.412 845.6983 845.69 845.3235 844.4732 843.4847 842.6878 842.0433 841.5067 841.0186 840.5264 840.0479 839.6226 839.2126 838.727 838.1603 837.5532 836.9388 836.3524 836.0138 836.1239 836.4991 836.9117 837.5689 838.4711 839.4146 840.2397 840.8387 841.3561 841.8944
874.5058 874.5518 874.3325 874.0635 873.9174 873.8377 873.5994 873.1287 872.485 871.7608 870.9656 870.1517 869.4119 868.8397 868.4877 868.4284 868.7128 869.2647 869.9349 870.5955 871.1258 871.4421 871.5255 871.4291 871.2668 871.0697 870.8961 870.8237 870.7617 870.7165 870.9114 871.2305 871.4278 871.4609 871.3232 871.1703 871.3655 871.5985 871.6288 871.6071 871.6968 871.8079 871.7902 871.6081 871.343 871.1324 871.0029 870.8312 870.4685 869.8618 869.133 868.4471 867.8272 867.3575 867.1754 867.1198 866.9219 866.4456 865.9019 865.3997 864.9022 864.4309 864.0125 863.6284 863.2269 862.7571 862.197 861.6292 861.194 861.0066 860.9995 861.0388 861.0836 861.0575 860.851 860.4161 859.7601 858.9446 858.0847 857.2186 856.3399 855.4001 854.4447 853.467 852.5099 851.8923 851.8893 852.1595 852.4366 852.6633 852.7868 852.9061 853.0678 853.1891 853.1877 852.9698 852.4705 851.8616 851.3459 850.8461 850.1592 849.1529 847.8796 846.5302 845.3007 844.2794 843.5794 843.3143 843.4839 844.0134 844.6034 845.026 845.2629 845.3122 845.1214 844.843 844.5638 844.2274 843.8262 843.6637 843.9645 844.545 845.1523 845.6902 846.1741 846.4459 846.2111 845.5227 844.5379 843.6034 842.8503 842.1753 841.5814 841.0785 840.6063 840.1722 839.7783 839.3431 838.8227 838.229 837.6163 836.9999 836.4301 836.1613 836.339 836.8568 837.4854 838.3719 839.3522 840.2583 841.0048 841.5497 842.0394 842.5887
874.88 874.9269 874.7297 874.4661 874.2853 874.2433 874.0474 873.5724 872.8663 872.0115 871.1708 870.494 869.9239 869.47 869.2377 869.2938 869.5957 870.0876 870.6505 871.1464 871.5875 871.9033 871.9662 871.8801 871.7753 871.633 871.4789 871.334 871.1365 871.0368 871.3177 871.7553 872.1138 872.4218 872.4752 872.2648 872.2757 872.3829 872.4079 872.3912 872.418 872.432 872.2856 871.958 871.6505 871.4635 871.3298 871.106 870.7614 870.3196 869.7588 869.1428 868.5186 868.0242 867.8063 867.6405 867.2686 866.662 866.0283 865.4894 865.0311 864.6631 864.3578 864.0689 863.699 863.1467 862.5095 861.9187 861.4179 861.1038 861.0222 861.026 861.053 861.0648 861.0519 860.8992 860.3999 859.6802 858.8876 857.9162 856.8785 855.9542 855.0726 854.1713 853.3436 852.9132 852.9892 853.1599 853.2377 853.3076 853.3341 853.3866 853.5891 853.769 853.7668 853.6014 853.1802 852.4664 851.7527 851.1603 850.514 849.5762 848.4525 847.317 846.2641 845.363 844.8207 844.6436 844.7573 845.1519 845.6277 845.9814 846.1794 846.1468 845.8293 845.4185 845.0124 844.5984 844.3416 844.5095 844.9132 845.399 845.9493 846.4832 846.911 846.9636 846.4284 845.5199 844.5392 843.7006 843.0004 842.3291 841.6837 841.1397 840.7071 840.3517 839.9734 839.51 838.9429 838.2565 837.5883 836.9621 836.4296 836.3093 836.7526 837.4755 838.2453 839.2167 840.1766 840.9711 841.6169 842.151 842.6758 843.2641
875.1948 875.2057 875.0004 874.7646 874.6379 874.6738 874.6125 874.2546 873.5112 872.5119 871.5818 870.9815 870.534 870.1703 870.0254 870.1362 870.4331 870.853 871.2877 871.6722 872.0724 872.3642 872.38 872.2654 872.1843 872.1317 872.0596 871.905 871.6223 871.4809 871.8132 872.3478 872.821 873.3026 873.5243 873.3115 873.1235 873.1134 873.1363 873.1506 873.1306 873.0187 872.7486 872.3439 871.9448 871.6942 871.5747 871.3687 871.0781 870.7426 870.302 869.7975 869.215 868.7128 868.4242 868.0899 867.5024 866.7728 866.1162 865.5784 865.1216 864.739 864.4282 864.1628 863.8287 863.3205 862.7336 862.1842 861.6823 861.3 861.1188 861.0496 861.05 861.0649 861.0674 861.0623 860.8922 860.43 859.6973 858.6952 857.7355 856.9464 856.1292 855.2672 854.5247 854.1456 854.1004 854.0658 853.9777 853.9254 853.9162 853.9863 854.1449 854.2422 854.2387 854.1675 853.8967 853.242 852.4112 851.735 851.1389 850.347 849.3755 848.3605 847.4167 846.5944 846.0859 845.9354 845.9991 846.2181 846.5369 846.8271 846.9725 846.8727 846.5374 846.0804 845.5979 845.1702 845.0487 845.3766 845.8686 846.3613 846.8661 847.3439 847.4858 847.082 846.3765 845.513 844.5827 843.7435 843.0502 842.4157 841.7736 841.206 840.8144 840.5165 840.1461 839.655 839.0061 838.2071 837.4563 836.816 836.4003 836.5148 837.2424 838.2133 839.0702 840.0383 840.9017 841.5529 842.1298 842.6907 843.2651 843.8497
875.3205 875.3708 875.1758 874.9984 875.0339 875.1782 875.2694 875.0827 874.3011 873.19 872.1837 871.5984 871.2094 870.9032 870.8056 870.9529 871.2037 871.4694 871.8336 872.2662 872.6356 872.8308 872.7777 872.6304 872.5515 872.5925 872.6757 872.6381 872.4261 872.2903 872.5848 873.1806 873.7355 874.1858 874.4179 874.2601 873.9815 873.8525 873.8082 873.7732 873.6508 873.452 873.1758 872.7948 872.3545 872.0029 871.8497 871.6626 871.4031 871.1384 870.7849 870.3526 869.8069 869.2663 868.8294 868.3364 867.6003 866.7432 866.0779 865.6329 865.2229 864.7996 864.438 864.174 863.8704 863.4293 862.928 862.4087 861.9411 861.6078 861.3573 861.1666 861.1124 861.0768 861.0374 861.0588 861.0559 860.8359 860.2155 859.3124 858.5532 857.9088 857.1876 856.402 855.6571 855.1409 854.9026 854.7389 854.5714 854.5079 854.5903 854.7023 854.7156 854.64 854.5772 854.5565 854.4753 854.0568 853.238 852.4812 851.9071 851.1678 850.263 849.3299 848.4524 847.7302 847.2944 847.1452 847.168 847.3273 847.5639 847.7452 847.7704 847.5641 847.2134 846.7679 846.2753 845.8699 845.8682 846.3431 846.9429 847.4922 847.9471 848.1214 847.7747 847.0903 846.3051 845.4771 844.6207 843.7889 843.0259 842.3568 841.7665 841.2538 840.8616 840.542 840.1755 839.61 838.8406 838.0267 837.2911 836.722 836.5639 837.023 838.0229 839.1387 839.9947 840.8854 841.6186 842.1559 842.6753 843.218 843.7748 844.3175
875.3899 875.5589 875.4643 875.3656 875.4694 875.7643 876.0684 876.0178 875.2319 874.0002 872.9029 872.3497 871.9949 871.7146 871.632 871.7809 872.0001 872.2052 872.5353 872.9468 873.202 873.2471 873.1282 872.9756 872.9327 873.0754 873.2787 873.3588 873.2834 873.2219 873.4709 874.037 874.5479 874.9161 875.1406 875.069 874.7999 874.59 874.4643 874.2901 874.0589 873.8133 873.5084 873.1292 872.7276 872.4 872.2134 872.0327 871.7777 871.4916 871.1495 870.7084 870.196 869.6333 869.033 868.3697 867.5642 866.7026 866.0897 865.6671 865.2274 864.7946 864.4411 864.1935 863.9136 863.5205 863.0696 862.5878 862.1355 861.7711 861.3914 861.0753 861.059 861.0757 861.035 861.0599 861.1042 861.0297 860.614 859.9175 859.2847 858.6876 858.0407 857.3522 856.6093 855.9592 855.5787 855.3511 855.1888 855.1819 855.3127 855.3641 855.2786 855.1495 855.004 854.8791 854.8284 854.636 854.0258 853.2825 852.6111 851.8727 851.0304 850.132 849.2954 848.6804 848.3851 848.2737 848.2348 848.3633 848.55 848.6128 848.486 848.1718 847.7711 847.3281 846.877 846.6188 846.9061 847.5751 848.1919 848.6336 848.8499 848.6991 848.1227 847.2595 846.2498 845.2797 844.4801 843.7537 843.0048 842.3081 841.7544 841.2892 840.8551 840.4396 839.9529 839.2762 838.439 837.6696 837.0962 836.7872 837.0475 837.8471 838.9808 840.1567 840.9809 841.7693 842.3917 842.8446 843.2876 843.7264 844.1633 844.6661
875.5511 875.7946 875.8262 875.7717 875.7964 876.1093 876.53 876.6148 876.0471 874.9459 873.8349 873.2019 872.801 872.5582 872.4702 872.5583 872.7903 873.0606 873.3825 873.6834 873.7883 873.7095 873.5217 873.3444 873.3782 873.5927 873.8414 873.9912 874.0073 874.0082 874.2209 874.6758 875.0678 875.3592 875.5078 875.3831 875.1407 874.9778 874.8608 874.6757 874.405 874.0977 873.7636 873.3926 873.0048 872.6802 872.4661 872.2753 872.0385 871.7578 871.4169 870.989 870.4867 869.8759 869.1434 868.3737 867.5813 866.7615 866.1609 865.6982 865.2278 864.8379 864.5443 864.2993 863.9879 863.5696 863.1052 862.5823 861.9686 861.3579 860.8082 860.585 860.8436 861.0647 861.0946 861.1167 861.1334 861.1257 860.9871 860.5852 860.0081 859.3508 858.7156 858.1166 857.4744 856.8116 856.3301 856.0703 855.9603 855.9931 856.0273 855.9467 855.8106 855.6876 855.5672 855.3831 855.1895 855.0054 854.6052 853.9564 853.2333 852.5026 851.7153 850.8591 850.0734 849.5258 849.3065 849.2609 849.2957 849.3916 849.4469 849.3931 849.1523 848.7448 848.2814 847.8217 847.4212 847.337 847.954 848.7961 849.2694 849.3767 849.2525 848.8733 848.1456 847.1602 846.0743 845.0379 844.2097 843.5252 842.8504 842.2227 841.6841 841.1815 840.6678 840.129 839.4995 838.7277 837.8761 837.2023 836.9209 837.0689 837.7511 838.812 840.0334 841.1553 841.861 842.5395 843.1296 843.5421 843.8944 844.1711 844.4288 844.8655
875.8118 876.0096 876.06 876.0557 876.1111 876.3648 876.631 876.6748 876.5162 875.9773 875.073 874.3269 873.7827 873.476 873.3334 873.3168 873.5126 873.8746 874.2051 874.3259 874.2549 874.1039 873.9045 873.7627 873.8716 874.0927 874.2983 874.4196 874.469 874.6042 874.8355 875.1227 875.392 875.6328 875.7162 875.4902 875.2122 875.1076 875.0554 874.9172 874.6292 874.2862 873.9929 873.6823 873.3034 872.9151 872.619 872.3786 872.1356 871.8862 871.5753 871.1336 870.5831 869.904 869.1144 868.3358 867.6309 866.9515 866.3727 865.8801 865.4056 864.9981 864.6959 864.4039 863.988 863.4539 862.8963 862.211 861.3467 860.5872 860.1021 860.163 860.6312 860.9833 861.1256 861.1856 861.2136 861.2245 861.2301 861.0981 860.647 859.9849 859.3613 858.7862 858.222 857.6522 857.1747 856.9127 856.8292 856.8422 856.7078 856.5012 856.3351 856.2014 856.0992 855.9721 855.7949 855.6039 855.2195 854.5359 853.7689 853.0475 852.3282 851.5605 850.8453 850.3484 850.1608 850.1582 850.21 850.2458 850.2253 850.096 849.7831 849.3344 848.8064 848.283 847.8912 847.9585 848.8695 849.7171 849.7921 849.4952 849.1451 848.6675 847.8792 846.8635 845.7988 844.7778 843.904 843.2086 842.5687 841.9683 841.4202 840.864 840.2389 839.549 838.8365 838.092 837.4284 837.1004 837.208 837.7361 838.5696 839.6901 840.9185 841.93 842.5396 843.1691 843.8044 844.2174 844.4329 844.4924 844.5694 844.9469
876.0125 876.1581 876.2106 876.2687 876.3873 876.5757 876.7874 876.9517 877.0997 877.0084 876.3754 875.59 874.9072 874.4697 874.2476 874.1482 874.2714 874.5815 874.816 874.7911 874.5972 874.3828 874.2101 874.139 874.2158 874.3503 874.4818 874.6088 874.7957 875.1213 875.4665 875.7311 875.8784 875.9391 875.8601 875.5681 875.2854 875.2111 875.2123 875.0992 874.8438 874.5059 874.1844 873.8433 873.4643 873.0768 872.7285 872.4371 872.1874 871.9568 871.6343 871.1335 870.521 869.813 869.0411 868.3097 867.694 867.1369 866.5829 866.0582 865.5626 865.1379 864.821 864.4404 863.8771 863.2211 862.5834 861.8003 860.7573 859.8432 859.4442 859.7825 860.392 860.8159 861.0872 861.24 861.3047 861.3275 861.3431 861.3091 861.0823 860.5957 860.0345 859.4922 858.9756 858.4877 858.0597 857.7959 857.7865 857.844 857.5469 857.1467 856.8974 856.7329 856.6253 856.5564 856.4166 856.1979 855.7861 855.045 854.1959 853.4285 852.7664 852.1176 851.5258 851.1608 851.0245 850.9789 850.9675 850.9701 850.8982 850.6953 850.366 849.9063 849.329 848.7513 848.3654 848.6072 849.5906 850.1569 849.8792 849.3674 848.9185 848.4048 847.5731 846.5181 845.4437 844.4029 843.507 842.8149 842.1872 841.5687 840.9865 840.4063 839.7885 839.0615 838.28 837.635 837.3244 837.4642 837.9821 838.6526 839.4489 840.5001 841.626 842.5336 843.1049 843.71 844.3472 844.7317 844.7833 844.6311 844.5778 844.9146
876.118 876.2742 876.37 876.4441 876.5404 876.7402 877.0676 877.3726 877.6053 877.688 877.3718 876.7328 876.0389 875.4912 875.1744 875.0159 875.0977 875.312 875.3817 875.1928 874.9028 874.6409 874.4536 874.3815 874.4019 874.4966 874.624 874.7806 875.0537 875.4758 875.9412 876.2878 876.369 876.2091 875.9543 875.7009 875.4824 875.3687 875.3189 875.1417 874.89 874.6043 874.2604 873.8906 873.5211 873.1698 872.8166 872.4644 872.1697 871.9182 871.5706 871.0551 870.4411 869.7529 869.051 868.4223 867.8774 867.353 866.7973 866.2102 865.651 865.1956 864.8506 864.4139 863.7743 863.0433 862.2929 861.4005 860.276 859.339 859.094 859.5349 860.1667 860.6594 861.052 861.3314 861.418 861.393 861.3618 861.3419 861.2827 861.0894 860.7213 860.2523 859.7759 859.3743 859.0641 858.8377 858.8724 858.934 858.5237 857.9362 857.5554 857.3358 857.2355 857.2336 857.1093 856.824 856.2849 855.427 854.5466 853.7632 853.0555 852.4645 852.0707 851.9111 851.8279 851.7294 851.6562 851.619 851.4987 851.2141 850.8264 850.3373 849.7365 849.171 848.9783 849.5001 850.3593 850.5851 850.1799 849.4882 848.8173 848.1616 847.2406 846.1266 845.0201 843.9509 843.0106 842.313 841.7156 841.1219 840.5125 839.8591 839.2304 838.6207 837.9622 837.4783 837.5143 838.039 838.7369 839.4556 840.2666 841.2301 842.1519 842.8998 843.4835 844.083 844.6532 844.9459 844.8587 844.5906 844.4584 844.6805
876.2538 876.4084 876.5383 876.5917 876.6433 876.8403 877.1896 877.5497 877.8005 877.8943 877.7633 877.3609 876.8369 876.3538 876.0082 875.7971 875.8048 875.915 875.8872 875.6266 875.2829 874.9642 874.7415 874.6362 874.5816 874.6282 874.7557 874.9788 875.3077 875.6864 876.1121 876.4348 876.4713 876.2479 876.0118 875.8672 875.6966 875.5384 875.3938 875.1279 874.8098 874.5061 874.2017 873.8774 873.5413 873.2412 872.9229 872.5303 872.1561 871.8333 871.4775 871.019 870.4782 869.8796 869.2938 868.7224 868.1328 867.5464 867.0002 866.4421 865.8508 865.3251 864.8935 864.3685 863.6603 862.8485 861.9785 860.9871 859.9677 859.3119 859.2358 859.6182 860.1937 860.771 861.2669 861.554 861.5679 861.4582 861.393 861.3916 861.4034 861.376 861.2219 860.8773 860.4825 860.2468 860.1228 860.0179 860.0171 859.9653 859.4941 858.8329 858.3102 858.0286 857.958 857.9518 857.7759 857.3899 856.6957 855.761 854.8469 854.0835 853.4714 853.0219 852.7784 852.6611 852.5498 852.4324 852.3179 852.1753 851.9384 851.5764 851.1187 850.5823 850.0074 849.6125 849.773 850.4059 850.9449 850.9881 850.6141 849.8653 848.9548 847.9797 846.8546 845.6563 844.54 843.4921 842.4991 841.6954 841.1111 840.5419 839.8404 839.1035 838.5255 838.1124 837.7614 837.505 837.6208 838.2343 839.0711 839.9619 840.8602 841.7281 842.5086 843.1954 843.747 844.3004 844.7708 844.9433 844.7837 844.4675 844.2444 844.2638
876.5275 876.6475 876.762 876.7931 876.7994 876.946 877.2019 877.4644 877.6782 877.7805 877.7175 877.4246 877.0765 876.8493 876.6671 876.5024 876.4986 876.5465 876.4391 876.1534 875.8042 875.4665 875.1852 874.97 874.8206 874.773 874.8771 875.2003 875.6003 875.8997 876.2224 876.4545 876.4211 876.2404 876.1042 875.9976 875.8363 875.6526 875.4861 875.2844 874.9791 874.6525 874.3268 873.9459 873.5812 873.307 873.0209 872.6264 872.2443 871.9019 871.5152 871.0962 870.6551 870.1411 869.576 868.9667 868.3168 867.696 867.1418 866.6292 866.0842 865.5349 864.9813 864.3329 863.5926 862.7758 861.8825 860.9855 860.2929 859.9493 859.9789 860.2431 860.639 861.145 861.5988 861.7936 861.7667 861.6393 861.5117 861.4714 861.497 861.5192 861.491 861.3542 861.1622 861.0701 860.9844 860.9076 860.8256 860.6406 860.1527 859.553 859.0485 858.7341 858.6426 858.5922 858.3129 857.7563 856.8914 855.9314 855.1207 854.5313 854.1082 853.799 853.5955 853.4767 853.3381 853.1252 852.908 852.6566 852.2853 851.8389 851.3655 850.9299 850.6235 850.5045 850.7664 851.24 851.3939 851.293 850.9567 850.1359 849.0038 847.7734 846.5002 845.2436 844.1076 843.0532 842.0129 841.0834 840.3658 839.6471 838.8082 838.0972 837.7635 837.6185 837.4883 837.4213 837.6544 838.3375 839.2971 840.3288 841.2776 842.098 842.8156 843.4664 843.9819 844.4447 844.7766 844.833 844.6524 844.3522 844.0616 843.8903
876.8048 876.8405 876.9354 876.973 876.9685 877.0381 877.1417 877.2939 877.5303 877.6658 877.6265 877.4816 877.3607 877.3 877.2432 877.2047 877.2518 877.2633 877.0885 876.791 876.4445 876.1075 875.8244 875.5868 875.3738 875.2365 875.3015 875.5577 875.881 876.1033 876.3005 876.4287 876.3665 876.2402 876.1208 875.9706 875.8024 875.6421 875.523 875.4262 875.2412 874.9451 874.5585 874.1237 873.754 873.4778 873.1503 872.7568 872.4152 872.0717 871.6265 871.1995 870.8156 870.3222 869.7915 869.2352 868.567 867.8983 867.2981 866.7554 866.2453 865.6849 865.0414 864.3264 863.5908 862.8528 862.1234 861.5325 861.2083 861.0792 861.0814 861.1389 861.2786 861.6128 861.9963 862.1509 862.0963 861.9231 861.7133 861.5774 861.5711 861.6148 861.6263 861.613 861.6233 861.6124 861.4818 861.3344 861.2003 860.9722 860.5154 860.0276 859.6754 859.3922 859.2166 859.0954 858.7218 858.0105 857.0201 856.0262 855.3919 855.0974 854.8311 854.5176 854.2614 854.1442 853.9907 853.6607 853.3134 852.986 852.5441 852.0454 851.6103 851.4387 851.5652 851.7285 851.8834 851.8813 851.6046 851.3425 850.9272 849.9507 848.683 847.38 846.1186 844.9034 843.749 842.6587 841.5853 840.5359 839.5704 838.6523 837.7394 837.0077 836.7274 836.7579 836.8959 837.1304 837.6323 838.4948 839.5454 840.5654 841.4975 842.348 843.077 843.6616 844.1021 844.4606 844.7188 844.7491 844.5428 844.251 843.9545 843.6882
877.0597 877.0212 877.0737 877.1131 877.139 877.1541 877.1721 877.2316 877.3751 877.5161 877.5873 877.6327 877.6497 877.6826 877.759 877.8362 877.8754 877.8122 877.637 877.4006 877.1622 876.9457 876.6934 876.4063 876.1382 875.9626 875.9787 876.0804 876.1434 876.1879 876.2554 876.3023 876.2776 876.2012 876.0468 875.8362 875.6829 875.5874 875.5275 875.4922 875.3287 875.061 874.7063 874.3097 874.0018 873.7443 873.3776 872.9719 872.6609 872.3334 871.8562 871.3796 870.9929 870.5571 870.1437 869.7424 869.1733 868.4188 867.6382 866.9537 866.3885 865.8317 865.1808 864.4578 863.7256 863.0549 862.5905 862.4297 862.4102 862.3824 862.3444 862.2749 862.2079 862.2707 862.4534 862.5366 862.4578 862.2548 862.0081 861.7962 861.7011 861.7164 861.7337 861.7158 861.719 861.7537 861.6893 861.5811 861.4682 861.2609 860.9176 860.6065 860.3804 860.0887 859.7913 859.5369 859.0861 858.275 857.2001 856.2458 855.783 855.5654 855.3259 855.0747 854.8531 854.6757 854.4501 854.1001 853.704 853.265 852.7223 852.1556 851.7579 851.8439 852.3027 852.6771 852.7028 852.3407 851.8336 851.3383 850.6258 849.4781 848.1826 846.9033 845.7078 844.55 843.3925 842.2781 841.1419 839.951 838.7853 837.7223 836.7422 835.9171 835.5141 835.6422 836.0914 836.7256 837.5658 838.5564 839.5995 840.6379 841.6205 842.5186 843.2572 843.731 844.0786 844.3928 844.6376 844.6705 844.4684 844.179 843.8566 843.558
877.2802 877.2307 877.222 877.2377 877.292 877.3331 877.3539 877.3763 877.4205 877.5222 877.6932 877.8584 877.9186 877.9743 878.0865 878.1698 878.1838 878.1294 878.01 877.9039 877.9058 877.884 877.6543 877.3224 876.9691 876.6805 876.5518 876.4777 876.3907 876.2911 876.1806 876.123 876.114 876.1062 875.991 875.8097 875.6784 875.6119 875.6221 875.6086 875.4288 875.2064 874.9659 874.6804 874.3882 874.0751 873.6848 873.2419 872.8998 872.6008 872.1484 871.6395 871.2576 871.0291 870.8232 870.5518 870.1232 869.3164 868.301 867.3605 866.6111 865.9464 865.2827 864.6285 864.0018 863.5513 863.3728 863.3576 863.4092 863.455 863.4147 863.2791 863.1482 863.048 862.9672 862.9141 862.8079 862.5965 862.3622 862.1336 861.9307 861.8524 861.8429 861.7848 861.726 861.7551 861.7686 861.7327 861.679 861.5795 861.426 861.2648 861.0278 860.6969 860.3746 860.043 859.508 858.638 857.5507 856.6512 856.2441 856.0295 855.8057 855.6068 855.4118 855.1738 854.8654 854.4924 854.084 853.5421 852.8992 852.2595 851.8681 852.051 852.5696 852.9957 852.9988 852.5626 852.0032 851.3544 850.3756 849.0701 847.7225 846.4759 845.3074 844.1569 842.9926 841.8084 840.5547 839.2835 838.0617 836.9264 835.8826 834.9794 834.5079 834.7282 835.46 836.4313 837.417 838.423 839.5248 840.7213 841.8267 842.7092 843.3829 843.7755 844.0391 844.3164 844.5573 844.6174 844.4639 844.1789 843.791 843.4274
877.5144 877.412 877.3356 877.3468 877.4254 877.5057 877.5466 877.5692 877.637 877.7925 877.986 878.1328 878.1994 878.2521 878.2937 878.29 878.2878 878.3055 878.3077 878.3758 878.5729 878.6731 878.4701 878.101 877.6751 877.3075 877.0816 876.8715 876.6561 876.4143 876.1835 876.0433 876.0146 876.072 876.0427 875.9225 875.8039 875.7287 875.7394 875.7151 875.605 875.4987 875.3541 875.1349 874.8386 874.4719 874.0688 873.6298 873.2413 872.9285 872.5209 872.0697 871.7918 871.7222 871.6713 871.4238 870.8739 869.9465 868.8759 867.8231 866.7707 865.7952 865.1288 864.77 864.4872 864.3243 864.2813 864.2819 864.3223 864.3218 864.1536 863.8819 863.7029 863.5596 863.38 863.2371 863.1129 862.9429 862.7614 862.5702 862.3159 862.0779 861.9568 861.8474 861.7473 861.7599 861.822 861.8675 861.9001 861.8975 861.8554 861.7743 861.5411 861.2175 860.9143 860.5099 859.9388 859.1276 858.0854 857.2224 856.7816 856.5009 856.2737 856.0903 855.8635 855.5864 855.2617 854.8867 854.4184 853.8102 853.136 852.4876 852.1711 852.4055 852.8173 853.1666 853.2098 852.7099 851.9708 851.1244 850.0151 848.6791 847.3174 846.0638 844.8802 843.7079 842.4908 841.1995 839.8841 838.6115 837.3924 836.2453 835.1854 834.3395 833.9623 834.2313 835.0945 836.1909 837.2288 838.2629 839.4282 840.7414 841.941 842.8448 843.5052 843.8726 844.0773 844.2997 844.5063 844.5865 844.4957 844.2177 843.7733 843.3112
877.72 877.5103 877.3497 877.3629 877.4873 877.6313 877.7258 877.7936 877.9192 878.1293 878.3035 878.3803 878.4294 878.4452 878.4081 878.3668 878.357 878.4054 878.5602 878.8289 879.1084 879.2402 879.0728 878.6912 878.2536 877.8532 877.529 877.2211 876.9191 876.5807 876.2763 876.0944 876.0847 876.2141 876.2611 876.2063 876.0995 875.9843 875.871 875.7519 875.7713 875.8491 875.7712 875.5667 875.2838 874.9238 874.5369 874.1456 873.7648 873.4126 873.055 872.7357 872.5614 872.4705 872.3248 871.9134 871.1497 870.1197 868.9483 867.7318 866.442 865.3137 864.8317 864.9249 865.09 865.1558 865.1686 865.1619 865.1772 865.1179 864.846 864.4622 864.2057 864.0156 863.7968 863.6044 863.4538 863.3389 863.2249 863.0722 862.8168 862.465 862.1768 861.965 861.8406 861.8486 861.9212 862.0197 862.1396 862.2006 862.1876 862.1144 861.9286 861.6539 861.3314 860.8909 860.3422 859.6348 858.6987 857.8691 857.3749 856.996 856.6901 856.4786 856.246 855.9444 855.5728 855.149 854.6503 854.0486 853.4509 853.0405 852.8824 852.9538 853.166 853.4091 853.4103 852.7907 851.787 850.684 849.4739 848.1483 846.8199 845.576 844.3638 843.1542 841.9222 840.6201 839.2989 838.007 836.7877 835.6821 834.6931 833.9712 833.7647 834.1096 834.8649 835.9313 837.0208 838.1188 839.3826 840.7419 841.9622 842.9199 843.6301 844.0277 844.2037 844.3764 844.5236 844.5594 844.4871 844.2032 843.7208 843.1887
877.8045 877.4603 877.2656 877.338 877.5219 877.7161 877.8936 878.0388 878.2066 878.422 878.5559 878.5834 878.6148 878.6113 878.5339 878.4592 878.4506 878.5788 878.8608 879.2219 879.5176 879.601 879.4315 879.0825 878.6841 878.2858 877.8856 877.5121 877.137 876.7278 876.4022 876.2549 876.3038 876.459 876.5319 876.5458 876.491 876.3476 876.2158 876.1533 876.2173 876.2592 876.1806 875.9829 875.6655 875.3021 874.9548 874.5887 874.2134 873.8813 873.6036 873.3557 873.1302 872.9185 872.5865 871.9153 870.98 869.9025 868.6738 867.3444 866.0187 865.0875 864.9342 865.3347 865.7559 865.932 865.9554 865.9397 865.9466 865.8543 865.5446 865.1025 864.728 864.4566 864.2383 864.0558 863.8999 863.7891 863.7 863.5878 863.3961 863.0587 862.6548 862.264 862.0102 861.9745 862.0466 862.1508 862.2679 862.3362 862.3419 862.2614 862.0828 861.8634 861.5912 861.1837 860.6487 859.9992 859.2059 858.4625 857.9477 857.483 857.0665 856.8141 856.6089 856.3027 855.868 855.3706 854.8552 854.3029 853.9737 854.11 854.2277 854.1079 853.9307 853.7598 853.3904 852.5027 851.3251 850.1448 848.9037 847.5751 846.2703 845.0556 843.857 842.6386 841.3776 840.0692 838.7568 837.4487 836.1755 835.0936 834.3453 834.0299 834.1066 834.4003 834.9003 835.7304 836.8015 838.0107 839.3739 840.7564 841.9556 842.9165 843.7155 844.265 844.4432 844.5283 844.5649 844.507 844.4208 844.1112 843.5732 842.9901
877.8381 877.4699 877.2932 877.3889 877.5895 877.802 878.009 878.194 878.4099 878.6506 878.7858 878.8342 878.854 878.82 878.7349 878.668 878.7379 879.0089 879.3651 879.7153 879.9454 879.9529 879.7648 879.4255 879.0289 878.6088 878.1431 877.6892 877.2422 876.8016 876.5318 876.4675 876.5582 876.7054 876.7809 876.8466 876.8684 876.7433 876.6355 876.6962 876.7691 876.6839 876.5598 876.3683 875.975 875.5696 875.2773 874.9421 874.595 874.3409 874.0878 873.7187 873.373 873.1169 872.7137 871.8781 870.7659 869.5552 868.2584 866.9511 865.8469 865.3699 865.653 866.1649 866.525 866.7057 866.7023 866.6411 866.6182 866.5035 866.1914 865.7295 865.2849 864.976 864.7445 864.5461 864.4156 864.3273 864.2352 864.155 864.0369 863.7167 863.2276 862.7094 862.3144 862.1758 862.209 862.2831 862.3538 862.4105 862.4292 862.3445 862.1542 861.9229 861.6667 861.3309 860.8337 860.2027 859.528 858.9374 858.4502 857.9601 857.5229 857.2177 856.9959 856.6918 856.2078 855.6395 855.0911 854.657 854.6688 855.11 855.2109 854.7562 854.1652 853.6274 852.9603 851.9409 850.7619 849.5621 848.2757 846.9361 845.6755 844.5233 843.4041 842.2163 840.8981 839.5571 838.2375 836.9355 835.6973 834.8081 834.5648 834.7476 834.9704 835.1639 835.3886 835.8118 836.6755 837.9453 839.4078 840.7972 841.9606 842.909 843.7574 844.4327 844.6945 844.6564 844.5269 844.4164 844.3023 843.9453 843.3667 842.7718
877.9392 877.5544 877.3317 877.4135 877.6251 877.836 878.0413 878.2695 878.5805 878.8736 878.9924 879.0052 879.0051 879.0168 879.0607 879.1402 879.3296 879.6589 879.9858 880.218 880.3382 880.3322 880.1593 879.8069 879.3513 878.8787 878.3871 877.8869 877.3669 876.9177 876.7141 876.6678 876.7322 876.903 877.0432 877.1549 877.2253 877.1907 877.16 877.2593 877.298 877.1457 876.945 876.7429 876.4107 875.9964 875.6315 875.2987 875.0267 874.8487 874.6368 874.2236 873.6995 873.3091 872.827 871.8841 870.6943 869.408 868.0656 866.9336 866.3027 866.2117 866.5259 866.9305 867.2509 867.4312 867.4117 867.3309 867.2569 867.0761 866.7447 866.286 865.8362 865.5258 865.2477 865.0016 864.8979 864.887 864.8638 864.8051 864.6703 864.3351 863.8185 863.2472 862.7305 862.4079 862.3121 862.3438 862.4002 862.437 862.4392 862.3685 862.2059 861.9911 861.7603 861.4719 861.036 860.4753 859.9271 859.4323 858.9658 858.5129 858.0661 857.6714 857.3445 856.9724 856.4902 855.9305 855.4153 855.2053 855.5005 855.8726 855.6206 854.8296 853.9785 853.2474 852.4456 851.3889 850.2156 848.9544 847.6013 846.2816 845.1321 844.0471 842.9214 841.7174 840.4141 839.1005 837.8066 836.5958 835.5628 834.9803 835.1304 835.5918 835.9078 836.1071 836.2805 836.4634 836.9187 838.0026 839.4968 840.899 842.0516 842.9998 843.8762 844.5424 844.7751 844.6247 844.3964 844.2629 844.0973 843.7073 843.1364 842.575
878.0552 877.7117 877.452 877.486 877.6999 877.8845 878.0959 878.456 878.8555 879.0478 879.016 878.9351 878.9701 879.1355 879.4119 879.6586 879.9008 880.2057 880.4204 880.5164 880.5769 880.5741 880.433 880.0904 879.5602 879.0308 878.5406 877.9993 877.4686 877.1402 877.0179 876.9604 876.9694 877.1436 877.3773 877.5181 877.5679 877.5778 877.6369 877.7388 877.7568 877.6301 877.3785 877.0609 876.7499 876.4048 876.0009 875.7007 875.5232 875.3847 875.2147 874.8604 874.2432 873.6241 872.9777 872.0132 870.8668 869.6166 868.4257 867.5372 867.0868 867.1028 867.3113 867.5593 867.8546 868.048 868.0525 867.9602 867.7823 867.5052 867.1664 866.7087 866.2169 865.8936 865.6445 865.4265 865.3621 865.4063 865.462 865.456 865.3074 865.0202 864.5735 863.9755 863.3033 862.7207 862.4327 862.3808 862.4064 862.4249 862.4025 862.3609 862.2869 862.1628 861.9888 861.7292 861.3538 860.8934 860.4372 859.9553 859.4443 858.9543 858.4797 858.0467 857.6531 857.1995 856.6653 856.1469 855.8571 856.0013 856.3932 856.4767 855.937 855.0432 854.0975 853.151 852.1556 851.0324 849.7634 848.4373 847.1248 845.9031 844.7976 843.6773 842.4793 841.2176 839.915 838.625 837.3693 836.2613 835.476 835.2625 835.7235 836.3713 836.8148 837.0557 837.1971 837.2726 837.5304 838.4051 839.7703 841.121 842.3024 843.3369 844.1807 844.6257 844.6799 844.4952 844.2434 844.0299 843.7952 843.4242 842.9183 842.4029
878.1548 877.9574 877.7607 877.7911 878.0005 878.2354 878.4938 878.8533 879.1179 879.1281 878.9754 878.8124 878.8237 879.0761 879.5103 879.9545 880.3416 880.6429 880.7606 880.7772 880.7832 880.7252 880.5227 880.127 879.6018 879.0617 878.5217 877.9671 877.5025 877.3674 877.447 877.5084 877.5227 877.624 877.8553 877.9957 878.0095 877.9875 877.9514 877.9504 877.9839 877.9523 877.689 877.3055 877.0024 876.7172 876.3954 876.1649 876.0281 875.9024 875.7711 875.5079 874.9343 874.1776 873.3458 872.3999 871.3206 870.1356 869.0695 868.3023 867.8767 867.8719 868.0372 868.1863 868.3396 868.4965 868.5461 868.4394 868.1605 867.782 867.4105 866.9753 866.4231 866.0345 865.8916 865.8269 865.8575 865.9329 866.0238 866.1 866.0016 865.718 865.3405 864.8 864.0652 863.3015 862.7388 862.4641 862.4057 862.3951 862.3779 862.3849 862.3849 862.3494 862.2568 862.0671 861.7609 861.3681 860.9777 860.48 859.8802 859.3259 858.8467 858.4106 857.963 857.4095 856.775 856.3223 856.2559 856.4932 856.7137 856.5068 855.897 855.051 854.0865 853.0365 851.8867 850.6337 849.302 847.9763 846.7674 845.7094 844.6018 843.317 842.0005 840.7086 839.4141 838.1254 836.8912 835.8859 835.3864 835.6041 836.3295 837.0913 837.6622 837.9493 838.0421 838.0731 838.2601 839.0091 840.2587 841.5569 842.7725 843.8546 844.509 844.6191 844.5637 844.4068 844.1003 843.7413 843.4176 843.0682 842.6342 842.1984
878.1684 878.2455 878.1915 878.2191 878.3896 878.6104 878.8897 879.2023 879.3344 879.2507 879.0735 878.8633 878.7676 878.9955 879.5056 880.0904 880.6044 880.899 880.9866 880.9968 880.9653 880.8591 880.6031 880.1622 879.6011 878.9791 878.3925 877.9411 877.6009 877.5882 877.7529 877.9147 878.0278 878.1348 878.3525 878.5187 878.5845 878.5874 878.4805 878.3124 878.1961 878.0901 877.8431 877.5646 877.3033 877.0318 876.7852 876.6289 876.5294 876.4358 876.3499 876.1623 875.6671 874.8714 873.9308 872.9273 871.8617 870.7363 869.7133 868.9986 868.606 868.5189 868.5922 868.6313 868.6566 868.7896 868.8761 868.7795 868.5085 868.0738 867.5998 867.1199 866.5294 866.0835 866.0701 866.2569 866.4081 866.4769 866.5637 866.7061 866.7464 866.5278 866.1567 865.6252 864.8312 863.9783 863.2138 862.6603 862.4201 862.372 862.3906 862.4196 862.4579 862.493 862.4565 862.3205 862.1567 861.9238 861.5331 860.9212 860.2236 859.6089 859.1351 858.7081 858.2133 857.599 856.9156 856.4583 856.3428 856.2135 856.1499 856.0638 855.6702 854.9371 853.9241 852.7287 851.4823 850.2304 848.9366 847.7335 846.7284 845.8043 844.5974 843.0897 841.6134 840.2512 838.9493 837.6877 836.5424 835.7307 835.5087 836.0173 836.9606 837.8572 838.4852 838.7508 838.7693 838.7547 838.9425 839.6864 840.8833 842.1697 843.4008 844.421 844.8665 844.751 844.5411 844.3497 844.0018 843.5207 843.0828 842.7014 842.2906 841.9753
878.2217 878.4502 878.5676 878.6537 878.8055 878.9747 879.204 879.4496 879.5132 879.4107 879.2556 879.0499 878.9475 879.2035 879.7421 880.349 880.8441 881.0476 881.0584 881.0435 881.0106 880.8633 880.5264 880.0839 879.5203 878.8428 878.2753 877.9773 877.826 877.8979 878.0855 878.2697 878.416 878.5599 878.7876 878.9733 879.0963 879.1553 879.0743 878.8877 878.6892 878.4824 878.1989 877.875 877.5941 877.3909 877.2719 877.2224 877.1868 877.1454 877.1 876.913 876.3557 875.4728 874.4657 873.4225 872.3645 871.3027 870.3578 869.7307 869.353 869.1339 869.0388 868.9356 868.8918 868.9615 868.9881 868.9011 868.6647 868.2171 867.687 867.1425 866.6467 866.4253 866.6301 866.9418 867.0909 867.0854 867.1212 867.2845 867.4236 867.3895 867.1037 866.5062 865.6282 864.665 863.7598 863.0112 862.5435 862.4073 862.4188 862.4614 862.5235 862.5781 862.5817 862.5109 862.4194 862.2541 861.8554 861.2002 860.47 859.8586 859.4172 858.9504 858.3936 857.8416 857.2613 856.8158 856.5469 856.1072 855.7509 855.5568 855.2741 854.574 853.4794 852.2465 851.0379 849.9182 848.8746 847.9632 847.0659 846.079 844.739 843.106 841.4513 839.9031 838.5078 837.309 836.4254 835.9292 835.9756 836.66 837.6927 838.7211 839.4003 839.5563 839.4406 839.348 839.5107 840.2773 841.5137 842.8304 844.0606 845.0256 845.3748 845.166 844.7281 844.3585 843.9481 843.4025 842.8737 842.4774 842.161 841.9738
878.5596 878.7529 878.9437 879.0988 879.2213 879.3208 879.5021 879.7181 879.7552 879.6222 879.4485 879.2735 879.215 879.4791 880.0061 880.5903 881.0042 881.075 880.9896 880.9269 880.8733 880.6622 880.2673 879.9021 879.4446 878.8596 878.3481 878.0788 878.0399 878.1739 878.3713 878.5651 878.7526 878.9528 879.153 879.3159 879.4675 879.5581 879.4954 879.3479 879.1824 878.9591 878.5789 878.1129 877.8373 877.8449 877.9455 877.9766 877.967 877.9669 877.9274 877.6513 876.9667 875.9948 874.95 873.9048 872.8901 871.9105 871.0403 870.4631 870.0974 869.7728 869.456 869.1956 869.0873 869.083 869.0054 868.8511 868.6221 868.1932 867.6534 867.1549 866.9841 867.1627 867.5255 867.83 867.9153 867.8587 867.8207 867.9017 868.0269 868.0836 867.894 867.2422 866.3105 865.3211 864.3408 863.4238 862.7694 862.5136 862.4722 862.507 862.5558 862.6047 862.6423 862.6476 862.5997 862.4496 862.0817 861.4678 860.7776 860.1637 859.6417 859.0654 858.4826 858.0502 857.6138 857.191 856.7745 856.1242 855.6265 855.3085 854.7976 853.8904 852.7654 851.6498 850.7027 849.9721 849.272 848.4687 847.4841 846.3293 844.8692 843.1992 841.4946 839.811 838.28 837.233 836.8063 836.7173 836.9179 837.5356 838.466 839.4672 840.1591 840.3325 840.17 839.9481 840.0251 840.8062 842.089 843.4523 844.6713 845.5743 845.8378 845.5718 845.0278 844.467 843.8792 843.2523 842.7433 842.4782 842.3464 842.2416
879.0151 879.2106 879.451 879.5997 879.6777 879.7406 879.8524 879.9542 879.9089 879.7617 879.6107 879.5817 879.6423 879.8543 880.3088 880.8188 881.0932 881.0598 880.9302 880.8149 880.68 880.4484 880.149 879.854 879.4929 879.0395 878.5812 878.2825 878.2095 878.3139 878.4972 878.6917 878.8989 879.167 879.4574 879.6525 879.7832 879.8601 879.8157 879.6893 879.5159 879.2419 878.8002 878.3473 878.2202 878.5134 878.8583 878.9779 878.9935 878.9858 878.815 878.3176 877.5185 876.5115 875.4466 874.4395 873.5151 872.6155 871.7618 871.1723 870.7574 870.3256 869.8642 869.4858 869.2777 869.1889 869.0454 868.8137 868.5689 868.1829 867.7437 867.5056 867.7343 868.1681 868.5479 868.7537 868.7115 868.5861 868.5265 868.538 868.6086 868.6145 868.3143 867.5549 866.5886 865.5861 864.566 863.61 862.9402 862.6452 862.5088 862.4644 862.5041 862.5756 862.6375 862.688 862.6784 862.5255 862.1891 861.6479 861.0179 860.3814 859.7587 859.0988 858.5183 858.1675 857.8636 857.4935 856.9782 856.201 855.5287 854.959 854.1434 853.1092 852.0355 851.1615 850.6669 850.3048 849.6978 848.8185 847.7389 846.4717 844.9733 843.3185 841.6234 839.928 838.4776 837.7476 837.6438 837.7229 838.0484 838.647 839.4143 840.2173 840.7225 840.8442 840.6608 840.39 840.4722 841.3115 842.6223 843.9608 845.0555 845.8312 846.0711 845.7849 845.2239 844.5489 843.7992 843.0845 842.6278 842.556 842.5958 842.5607
879.48 879.7007 879.9479 880.0603 880.0945 880.1533 880.2161 880.1863 880.0453 879.8123 879.7166 879.9908 880.187 880.321 880.6471 881.0106 881.1186 881.0317 880.9003 880.7327 880.4904 880.2159 880.0002 879.8584 879.6153 879.2307 878.8327 878.5391 878.41 878.4077 878.5126 878.6969 878.9559 879.3524 879.7767 880.0293 880.1237 880.1232 880.071 879.9287 879.6981 879.3791 878.9666 878.672 878.8335 879.3351 879.8043 879.9886 880.0114 879.9011 879.5104 878.8602 878.0338 877.0342 875.9771 875.0234 874.139 873.2548 872.4284 871.8011 871.2859 870.7776 870.2739 869.8434 869.584 869.4044 869.171 868.8791 868.6386 868.3838 868.1851 868.2779 868.741 869.2296 869.5388 869.6039 869.4618 869.2762 869.1602 869.14 869.1569 869.0065 868.4479 867.5741 866.6276 865.6689 864.6773 863.738 863.0615 862.7113 862.5413 862.4706 862.499 862.5693 862.638 862.7085 862.7164 862.5579 862.2673 861.8062 861.1943 860.5144 859.8389 859.1191 858.4489 858.0816 857.8604 857.5728 857.035 856.1794 855.2695 854.3532 853.3588 852.3908 851.5641 851.0212 850.7657 850.4868 849.842 848.8392 847.6737 846.4413 845.0635 843.4857 841.8224 840.1635 838.8877 838.4995 838.5868 838.7597 839.1989 839.819 840.4454 840.9606 841.2039 841.1661 840.9317 840.6938 840.8798 841.7976 843.0906 844.2887 845.0946 845.6901 846.0439 845.869 845.2883 844.5405 843.7557 843.0309 842.6085 842.6326 842.8068 842.908
879.9978 880.204 880.4158 880.5833 880.6694 880.7088 880.696 880.5722 880.4185 880.2739 880.3317 880.61 880.7356 880.8032 880.9814 881.1642 881.1821 881.0719 880.925 880.7443 880.482 880.203 880.028 879.9389 879.7792 879.4819 879.1384 878.8274 878.6749 878.6117 878.6 878.7254 879.0698 879.6248 880.0824 880.2924 880.4118 880.4116 880.3094 880.1136 879.821 879.4681 879.132 879.0577 879.4296 880.0281 880.5599 880.8215 880.8335 880.5776 880.0237 879.3063 878.4738 877.5002 876.4788 875.5455 874.6723 873.8223 873.0081 872.2875 871.6863 871.1545 870.6544 870.2233 869.9419 869.7016 869.397 869.1371 869.0363 869.0571 869.1317 869.2722 869.6125 870.0356 870.3027 870.3102 870.1371 869.9451 869.8291 869.774 869.722 869.4309 868.6974 867.7365 866.7642 865.8044 864.8299 863.8768 863.1633 862.7961 862.6468 862.5634 862.5417 862.5959 862.676 862.7521 862.7719 862.641 862.3655 861.9231 861.3265 860.6867 860.0162 859.1754 858.2831 857.702 857.4531 857.218 856.682 855.7861 854.7367 853.6497 852.6232 851.7953 851.2586 850.9557 850.7969 850.5443 849.8456 848.7244 847.4764 846.2835 845.089 843.6762 842.0585 840.4819 839.4613 839.3283 839.5376 839.8227 840.3253 840.9077 841.4191 841.7231 841.7482 841.5595 841.2463 841.0129 841.3104 842.3021 843.5115 844.5185 845.1207 845.571 845.9541 845.9263 845.3682 844.599 843.8333 843.1459 842.7664 842.8141 843.0392 843.2678
880.4713 880.6351 880.8792 881.2631 881.5313 881.511 881.373 881.1973 881.0398 881.168 881.4492 881.3794 881.1849 881.1877 881.2819 881.3259 881.2745 881.147 880.9907 880.8176 880.5956 880.3416 880.1801 880.0779 879.952 879.7869 879.4999 879.1717 878.9761 878.8774 878.8051 878.8621 879.2823 879.9637 880.418 880.5669 880.6442 880.6204 880.5223 880.3062 879.9131 879.5221 879.4061 879.6698 880.1722 880.7446 881.2233 881.4243 881.3305 880.9813 880.3838 879.6642 878.8571 877.921 876.9337 876.0322 875.1733 874.3286 873.5035 872.7306 872.0557 871.47 870.9696 870.5212 870.1797 869.9263 869.7478 869.7043 869.7457 869.813 869.9291 870.1219 870.3742 870.6285 870.8015 870.8166 870.6592 870.5311 870.5494 870.5723 870.4412 869.9983 869.2506 868.2979 867.2729 866.2289 865.1465 864.0583 863.2462 862.8759 862.7272 862.6237 862.5889 862.6359 862.7098 862.7749 862.8217 862.7898 862.5828 862.1735 861.597 860.9451 860.1611 859.171 858.1315 857.3376 856.9674 856.6818 856.0419 855.0798 854.0424 853.0551 852.1833 851.4202 850.8014 850.4468 850.319 850.1577 849.5444 848.4122 847.1798 846.0558 844.9797 843.7769 842.2852 840.8741 840.1885 840.226 840.507 840.884 841.3813 841.916 842.3029 842.3892 842.2773 842.0377 841.7001 841.4591 841.7504 842.769 843.9429 844.8163 845.3498 845.7704 846.1159 846.0917 845.5084 844.7429 844.0189 843.3978 843.0808 843.1202 843.3229 843.606
880.8414 881.0101 881.3657 881.8844 882.2317 882.2578 882.1141 881.8925 881.6386 881.5721 881.7717 881.756 881.4982 881.4255 881.4866 881.4736 881.3906 881.2697 881.1229 880.9613 880.7966 880.6037 880.4155 880.2532 880.1281 880.0698 879.9223 879.6273 879.3282 879.1448 879.0347 879.0929 879.578 880.2925 880.7426 880.8727 880.9162 880.8864 880.7602 880.496 880.0147 879.6508 879.847 880.4073 881.0206 881.5676 881.8779 881.8218 881.5296 881.1478 880.601 879.9222 879.1594 878.2775 877.3188 876.4445 875.5866 874.7397 873.9136 873.1088 872.3471 871.6602 871.119 870.6378 870.2707 870.1165 870.1901 870.3511 870.4786 870.5636 870.666 870.8361 871.0165 871.1362 871.2275 871.2792 871.2384 871.2095 871.2982 871.3762 871.1896 870.6371 869.8361 868.8428 867.7307 866.5645 865.3618 864.1871 863.3254 862.9573 862.8131 862.7 862.6364 862.6563 862.7141 862.7741 862.8341 862.8818 862.8402 862.5367 861.9164 861.1345 860.1797 859.1106 858.045 857.1191 856.5328 856.108 855.3722 854.3972 853.4676 852.6718 851.9364 851.2064 850.4895 849.8588 849.4266 849.1907 848.8438 848.0125 846.931 845.8508 844.8002 843.7282 842.4641 841.3168 840.973 841.1875 841.5333 841.9419 842.4389 842.91 843.1165 843.0449 842.8109 842.4927 842.1617 841.9125 842.1232 843.077 844.2184 845.0366 845.5411 845.9585 846.2978 846.267 845.6478 844.8576 844.1573 843.6093 843.3636 843.4116 843.6024 843.9069
881.1866 881.3868 881.9241 882.5364 882.8651 882.9157 882.7947 882.5328 882.2445 882.0682 882.053 881.9585 881.6275 881.4709 881.5541 881.6171 881.6044 881.5388 881.4077 881.2318 881.0704 880.8837 880.6814 880.5482 880.4644 880.4005 880.2945 880.0447 879.7253 879.4429 879.2043 879.2444 879.8468 880.6255 881.043 881.0895 881.0846 881.0586 880.9371 880.6862 880.2723 880.0624 880.3878 880.9774 881.6193 882.2037 882.4172 882.1442 881.7323 881.323 880.7853 880.1216 879.4013 878.597 877.6792 876.7877 875.9147 875.0482 874.1909 873.3334 872.4785 871.6816 871.078 870.6389 870.3887 870.3622 870.5681 870.8506 871.0895 871.2561 871.3842 871.5059 871.6058 871.6862 871.7632 871.8574 871.9695 872.0228 872.0419 871.9807 871.6718 871.1019 870.2763 869.2186 868.0358 866.8022 865.5329 864.3298 863.4695 863.063 862.91 862.8019 862.7043 862.6871 862.7322 862.791 862.8549 862.9624 863.0724 862.8727 862.2019 861.2471 860.1506 859.0461 857.9775 856.9648 856.1475 855.5305 854.7686 853.9133 853.164 852.459 851.7364 851.0063 850.2763 849.5551 848.8911 848.3773 847.9953 847.4407 846.5308 845.4969 844.4723 843.5231 842.6292 841.9218 841.8912 842.2421 842.6241 843.0374 843.5034 843.8624 843.9255 843.7607 843.4224 843.0044 842.5952 842.283 842.4756 843.4161 844.4571 845.0791 845.4554 845.8234 846.1807 846.2645 845.7493 844.9862 844.3456 843.8629 843.6555 843.6998 843.8758 844.1716
881.5092 881.8925 882.6069 883.2274 883.4783 883.5272 883.4534 883.1772 882.8214 882.5692 882.4016 882.1563 881.8137 881.6296 881.6262 881.7173 881.7919 881.77 881.6422 881.4644 881.3176 881.1526 881.0068 880.933 880.8776 880.8013 880.6356 880.3633 880.0685 879.728 879.3162 879.3696 880.1766 880.9693 881.2759 881.2411 881.2368 881.2784 881.1805 880.953 880.6645 880.6038 880.9767 881.5334 882.1006 882.5833 882.7051 882.3724 881.9257 881.5008 880.9702 880.3303 879.6293 878.8573 877.9651 877.068 876.2177 875.325 874.3813 873.4105 872.4524 871.5774 870.9887 870.7233 870.7007 870.8002 870.9906 871.2612 871.5486 871.8054 871.9997 872.1321 872.223 872.3262 872.4657 872.6064 872.6729 872.6119 872.4943 872.2443 871.8085 871.2065 870.4151 869.4241 868.2471 866.9431 865.6514 864.5552 863.7591 863.2714 863.0493 862.9102 862.7861 862.7305 862.7501 862.8041 862.8845 863.0362 863.2 863.0903 862.5002 861.5256 860.3339 859.1318 857.9681 856.8527 855.8925 855.1688 854.5061 853.7938 853.0318 852.2434 851.4456 850.647 849.8591 849.1022 848.394 847.7167 847.1054 846.4584 845.5773 844.6572 843.843 843.2448 842.8815 842.7118 842.9207 843.3135 843.7152 844.1293 844.535 844.7972 844.7661 844.4685 844.0446 843.5769 843.0697 842.6834 842.916 843.8389 844.6428 845.0245 845.2797 845.5785 845.9321 846.1411 845.8253 845.2052 844.6977 844.2854 844.0718 844.0528 844.1627 844.3912
882.0989 882.7405 883.4755 883.9447 884.0627 884.0521 883.9755 883.7054 883.3168 882.9995 882.7268 882.3828 882.0323 881.8455 881.7809 881.7944 881.8328 881.8061 881.7418 881.6328 881.532 881.4294 881.3882 881.3454 881.2752 881.1425 880.8903 880.6094 880.377 880.0788 879.6998 879.809 880.5884 881.3716 881.7006 881.5965 881.454 881.513 881.4958 881.3232 881.1537 881.2201 881.6045 882.0897 882.5219 882.8404 882.8446 882.465 882.0123 881.6041 881.0937 880.4949 879.8237 879.0535 878.2041 877.3713 876.5164 875.5485 874.4639 873.3569 872.3316 871.5019 871.1037 871.1096 871.2355 871.3514 871.4833 871.6815 871.9452 872.2465 872.5327 872.7289 872.8744 873.046 873.2023 873.2387 873.1178 872.8873 872.6558 872.3396 871.8014 871.0983 870.2791 869.3615 868.3061 867.0587 865.8522 864.8898 864.13 863.5773 863.2265 863.0176 862.8712 862.784 862.7793 862.8272 862.9252 863.0822 863.2222 863.1938 862.769 861.9435 860.8696 859.5985 858.2354 856.9418 855.9247 855.2786 854.683 853.9604 853.0703 852.0893 851.1077 850.1367 849.1941 848.3313 847.567 846.8336 846.0952 845.3036 844.437 843.6848 843.2646 843.2641 843.4486 843.6205 843.952 844.387 844.8256 845.2734 845.6658 845.8047 845.5987 845.1733 844.696 844.1706 843.5778 843.176 843.44 844.1924 844.6769 844.9221 845.1522 845.3953 845.6808 845.9564 845.8726 845.4092 845.01 844.6971 844.5048 844.428 844.4442 844.5689
882.7564 883.4984 884.1644 884.4886 884.4637 884.2935 884.1021 883.8182 883.4466 883.1456 882.8867 882.5651 882.2463 882.0504 881.9404 881.869 881.8603 881.9006 881.9427 881.9182 881.8582 881.7943 881.7751 881.7081 881.5592 881.3196 881.059 880.8659 880.7476 880.6144 880.4562 880.6083 881.2103 881.8204 882.1466 882.077 881.8819 881.8149 881.7847 881.678 881.5811 881.6644 881.939 882.268 882.5995 882.8648 882.8376 882.4693 882.0348 881.6123 881.0813 880.4833 879.8496 879.1567 878.413 877.611 876.717 875.6941 874.5176 873.324 872.3048 871.6796 871.5417 871.6467 871.7873 871.9103 872.0215 872.1669 872.4006 872.7189 873.0461 873.2803 873.4709 873.665 873.7425 873.636 873.4234 873.1243 872.7872 872.3535 871.7487 871.0337 870.1959 869.2755 868.2925 867.1755 866.0607 865.1245 864.4107 863.8746 863.4608 863.1808 862.985 862.8607 862.8298 862.8597 862.9404 863.0541 863.1574 863.1843 862.918 862.2349 861.286 860.0988 858.7709 857.4746 856.395 855.6311 854.954 854.1465 853.1854 852.1679 851.1522 850.1411 849.1398 848.1612 847.2054 846.2609 845.3074 844.4225 843.7452 843.3584 843.3549 843.6828 844.1572 844.6234 845.0637 845.5089 845.9545 846.4094 846.7642 846.7575 846.3967 845.9073 845.3912 844.7883 844.137 843.7307 843.8744 844.2814 844.5821 844.8121 845.0421 845.2722 845.511 845.7787 845.8718 845.5674 845.2361 844.9975 844.8279 844.7204 844.6867 844.7906
883.0425 883.7484 884.3639 884.6497 884.5049 884.2064 883.9488 883.6799 883.374 883.1339 882.939 882.6711 882.3958 882.2051 882.0462 881.895 881.8657 881.9948 882.1582 882.2431 882.224 882.1448 882.0739 881.9476 881.7368 881.4959 881.312 881.2126 881.1402 881.0644 881.0399 881.2274 881.6585 882.1133 882.356 882.321 882.2072 882.1641 882.1053 881.9764 881.8893 881.9888 882.1987 882.4333 882.694 882.8892 882.7897 882.4196 882.0037 881.559 881.0081 880.3969 879.764 879.1364 878.4896 877.7141 876.791 875.7382 874.5499 873.363 872.4918 872.1547 872.1519 872.2339 872.3461 872.4697 872.6039 872.7947 873.0526 873.338 873.6168 873.8243 873.9994 874.1391 874.1229 873.9226 873.6069 873.2348 872.8021 872.2543 871.7351 871.2112 870.4166 869.4046 868.3531 867.3061 866.3002 865.4349 864.8029 864.2769 863.7818 863.4125 863.1819 863.0312 862.9453 862.9157 862.9456 863.0267 863.1236 863.1646 862.9696 862.412 861.589 860.4874 859.1815 857.8663 856.7473 855.9329 855.174 854.288 853.2999 852.2809 851.2609 850.2453 849.2322 848.2191 847.2167 846.2313 845.2072 844.2462 843.763 843.8521 844.23 844.7242 845.269 845.7559 846.1905 846.6301 847.0731 847.4794 847.7306 847.6384 847.2238 846.7012 846.0982 845.3951 844.7208 844.2755 844.2368 844.4318 844.6546 844.8723 845.09 845.3078 845.5255 845.7379 845.8521 845.6747 845.4139 845.2151 845.0749 844.9579 844.9386 845.1453
882.9475 883.5938 884.1589 884.4899 884.4424 884.1669 883.8753 883.6354 883.3976 883.2172 883.0684 882.8172 882.5606 882.3896 882.2342 882.0547 882.0221 882.1606 882.3484 882.4669 882.4464 882.3343 882.2185 882.0832 881.9149 881.7657 881.6702 881.5988 881.5351 881.4727 881.4714 881.6454 881.9955 882.3636 882.508 882.456 882.3811 882.3865 882.3516 882.2225 882.1897 882.3306 882.5311 882.7363 882.9299 883.0071 882.822 882.4268 882.0084 881.5807 881.0746 880.4687 879.7582 879.0728 878.4513 877.6563 876.6639 875.6033 874.4834 873.446 872.8732 872.7729 872.8252 872.8896 872.9691 873.0872 873.2835 873.5704 873.861 874.065 874.185 874.2733 874.3536 874.3425 874.1808 873.8839 873.4391 873.0029 872.6804 872.3597 872.0422 871.588 870.8483 869.8646 868.762 867.7255 866.8625 866.1224 865.4795 864.825 864.1766 863.6929 863.4351 863.2758 863.1306 863.0268 863.0105 863.0696 863.1523 863.1442 862.8997 862.4467 861.8217 860.872 859.5718 858.2695 857.1351 856.201 855.3551 854.4197 853.4154 852.3979 851.3779 850.3578 849.3397 848.3228 847.3082 846.3015 845.2628 844.4461 844.4163 844.9089 845.4487 845.9708 846.4808 846.9229 847.3306 847.751 848.1641 848.4913 848.6323 848.5199 848.1079 847.5359 846.8358 846.0409 845.3644 844.9415 844.892 845.0502 845.2391 845.4272 845.6141 845.7835 845.9117 845.996 845.9346 845.7358 845.5118 845.3347 845.2067 845.1169 845.1964 845.5652
882.91 883.4431 884.0165 884.417 884.507 884.3375 884.0809 883.8593 883.6161 883.4337 883.3049 883.0468 882.764 882.5984 882.4887 882.3677 882.3204 882.3793 882.5267 882.641 882.5868 882.4298 882.2905 882.2358 882.2308 882.1504 882.0651 882.0007 881.9382 881.8903 881.929 882.0906 882.3152 882.5472 882.6749 882.7183 882.7145 882.6929 882.5917 882.4461 882.4847 882.6587 882.8349 883.0065 883.1313 883.0694 882.7663 882.3365 881.9324 881.5148 881.0331 880.4426 879.7013 878.9639 878.3024 877.4678 876.449 875.3898 874.3455 873.5941 873.4326 873.5235 873.5959 873.6559 873.7344 873.8775 874.1051 874.3899 874.62 874.633 874.5046 874.4458 874.3778 874.1581 873.8381 873.4536 873.0656 872.8231 872.7587 872.6959 872.4981 872.0481 871.3846 870.4963 869.5344 868.6772 867.8881 867.0617 866.1309 865.2229 864.5223 863.9868 863.6522 863.4689 863.3063 863.1557 863.0861 863.1075 863.1569 863.0837 862.7612 862.3257 861.8683 861.1827 860.0356 858.7502 857.5721 856.5029 855.5328 854.5505 853.5341 852.514 851.4959 850.4771 849.4633 848.4533 847.437 846.4193 845.3938 844.7668 845.0588 845.7648 846.4672 847.1243 847.6757 848.093 848.4647 848.8395 849.1998 849.4661 849.5217 849.3256 848.8857 848.2684 847.558 846.8328 846.1767 845.7253 845.6907 845.8675 846.0486 846.1916 846.2988 846.3525 846.303 846.1977 846.0212 845.7591 845.5325 845.3723 845.2633 845.2541 845.453 845.9366
883.4072 883.8654 884.4145 884.7362 884.7447 884.6174 884.4312 884.1746 883.9011 883.7465 883.6527 883.4337 883.1536 882.949 882.8408 882.7848 882.7499 882.7338 882.7709 882.8318 882.7961 882.6439 882.5105 882.5984 882.7855 882.6417 882.4727 882.4063 882.3451 882.3162 882.3994 882.5893 882.7919 882.9454 883.0446 883.0925 883.0782 883.0109 882.8679 882.7319 882.7945 882.9664 883.1255 883.2621 883.2953 883.0859 882.6365 882.1385 881.7492 881.3152 880.7728 880.1723 879.5257 878.8923 878.2477 877.4011 876.3732 875.283 874.3479 873.9622 874.0845 874.3029 874.4269 874.4999 874.6151 874.8152 875.0162 875.154 875.1617 874.9619 874.6926 874.4778 874.2389 873.8655 873.478 873.2258 873.1113 873.092 873.1237 873.1271 872.9812 872.5566 871.9296 871.1788 870.3726 869.5663 868.6769 867.6031 866.4734 865.4796 864.7374 864.1512 863.7256 863.5021 863.3453 863.1967 863.1227 863.1309 863.1334 862.9651 862.6157 862.2427 861.8878 861.3968 860.5301 859.3746 858.1705 856.9803 855.8216 854.7303 853.6831 852.6563 851.6406 850.6232 849.6075 848.5944 847.5789 846.5458 845.6257 845.3293 845.8121 846.5586 847.3147 848.0794 848.7384 849.1705 849.5182 849.8467 850.1387 850.3605 850.368 850.097 849.5617 848.8781 848.2405 847.6493 847.0256 846.5381 846.4779 846.62 846.7136 846.7134 846.635 846.522 846.3871 846.2369 846.048 845.7972 845.5587 845.3801 845.3318 845.4324 845.714 846.2949
884.0842 884.4633 884.9018 885.1389 885.1334 885.014 884.7996 884.4835 884.2009 884.0804 884.023 883.8434 883.6012 883.4243 883.3635 883.3578 883.3357 883.2836 883.2103 883.1511 883.0848 882.9843 882.9567 883.1857 883.5008 883.2733 882.9354 882.8107 882.7482 882.7401 882.8696 883.0754 883.2835 883.4265 883.4393 883.3898 883.3359 883.2505 883.1041 883.0121 883.0948 883.2728 883.4541 883.5473 883.4628 883.1689 882.6243 882.0362 881.5864 881.0984 880.5183 879.912 879.3393 878.8395 878.2768 877.4956 876.5152 875.4462 874.6885 874.6191 874.8437 875.0692 875.2482 875.3703 875.5245 875.7164 875.8123 875.741 875.5339 875.2361 874.8755 874.5059 874.1841 873.7372 873.3093 873.2299 873.3715 873.4916 873.5259 873.5083 873.393 873.0501 872.4527 871.6671 870.8363 870.0089 869.1112 868.0137 866.8073 865.7364 864.8979 864.1691 863.6221 863.3582 863.222 863.1324 863.1108 863.1403 863.1284 862.9263 862.6411 862.4054 862.1102 861.6249 860.9449 859.9944 858.8364 857.6063 856.3361 855.0977 853.9483 852.8705 851.8234 850.7955 849.7735 848.7523 847.7367 846.707 845.955 846.0195 846.6874 847.49 848.2873 849.0721 849.7376 850.1779 850.5073 850.7791 850.9902 851.1451 851.1215 850.8134 850.207 849.4595 848.8593 848.354 847.7547 847.283 847.2005 847.1982 847.0904 846.9492 846.8091 846.6714 846.5369 846.4014 846.1859 845.9325 845.6423 845.4276 845.4368 845.6227 846.0102 846.7018
884.6962 885.0288 885.3305 885.5005 885.4964 885.3452 885.0864 884.772 884.5267 884.4039 884.3726 884.2649 884.0884 883.9556 883.9265 883.9467 883.9592 883.9105 883.7619 883.5851 883.434 883.4011 883.5697 883.9626 884.3635 884.1378 883.5588 883.2481 883.1609 883.1834 883.3443 883.5428 883.7039 883.8032 883.7974 883.708 883.6396 883.5083 883.2864 883.1869 883.3164 883.5152 883.7052 883.7758 883.6028 883.2472 882.6694 882.0316 881.5165 880.9827 880.3867 879.7762 879.2078 878.6995 878.1304 877.4185 876.5148 875.65 875.313 875.4744 875.7147 875.8898 876.0552 876.225 876.3234 876.3552 876.2608 876.0822 875.8436 875.5208 875.0959 874.6281 874.2867 873.9807 873.6818 873.6516 873.8261 873.9587 873.9398 873.8704 873.6997 873.3035 872.7422 872.0114 871.2001 870.3758 869.4845 868.4057 867.1843 866.0236 865.0199 864.1184 863.4989 863.2187 863.1168 863.0977 863.1127 863.1575 863.1855 863.102 862.9428 862.7352 862.3749 861.86 861.2864 860.5377 859.4935 858.2971 857.0234 855.6832 854.4152 853.2381 852.1105 851.0336 849.982 848.9496 847.9323 846.9929 846.5068 846.8055 847.5506 848.3882 849.2213 850.0273 850.7155 851.19 851.4814 851.6284 851.7487 851.8644 851.793 851.4517 850.8474 850.1327 849.5554 849.0375 848.43 847.9616 847.8425 847.7665 847.5829 847.3806 847.1976 847.0374 846.8835 846.7403 846.4792 846.1803 845.8191 845.5757 845.6083 845.8331 846.3066 847.0588
