1652.006 1651.955 1651.748 1651.559 1651.511 1651.489 1651.382 1651.259 1651.126 1651.073 1650.992 1650.794 1650.626 1650.581 1650.588 1650.567 1650.489 1650.333 1650.157 1649.979 1649.775 1649.542 1649.302 1649.056 1648.806 1648.667 1648.61 1648.512 1648.354 1648.114 1647.723 1647.094 1646.232 1645.366 1644.646 1643.978 1643.24 1642.45 1641.744 1641.138 1640.567 1640.051 1639.642 1639.272 1638.855 1638.487 1638.186 1637.922 1637.758 1637.677 1637.589 1637.302 1636.813 1636.453 1636.344 1636.389 1636.551 1636.765 1637.001 1637.105 1637.075 1637.07 1637.084 1637.054 1636.987 1636.978 1637.158 1637.598 1638.154 1638.701 1639.219 1639.438 1639.053 1638.458 1638.076 1637.719 1637.123 1636.26 1635.27 1634.234 1633.148 1632.077 1631.143 1630.337 1629.486 1628.684 1628.074 1627.64 1627.351 1627.271 1627.382 1627.553 1627.722 1627.873 1628.012 1628.16 1628.31 1628.446 1628.565 1628.763 1629.222 1629.984 1630.746 1630.982 1630.589 1629.955 1629.461 1629.21 1629.189 1629.224 1629.199 1629.144 1629.065 1628.993 1628.96 1628.892 1628.484 1627.459 1626.089 1624.686 1623.417 1622.398 1621.601 1621.036 1620.658 1620.396 1620.126 1619.99 1620.12 1620.363 1620.47 1620.389 1620.26 1620.18 1620.092 1619.933 1619.802 1619.783 1619.795 1619.704 1619.429 1619.014 1618.611 1618.218 1617.733 1617.201 1616.665 1615.973 1615.168 1614.649 1614.438 1614.219 1613.972 1613.82 1613.652 1613.313 1612.754 1611.993 1611.181 1610.515 1610.02 1609.603 1609.246 1609.026 1608.983 1608.996 1608.995 1609.031 1609.118 1609.184 1609.056 1608.694 1608.225 1607.729 1607.149 1606.585 1606.076 1605.671 1605.544 1605.575 1605.623 1605.693 1605.807 1605.969 1606.084 1606.04 1605.853 1605.651 1605.437 1604.969 1604.327 1603.693 1603.19 1602.935 1602.727 1602.455 1602.258 1602.145 1602 1601.814 1601.621 1601.429 1601.328 1601.367 1601.327 1601.01 1600.439 1599.852 1599.516 1599.378 1599.214 1598.995 1598.769 1598.545 1598.351 1598.255 1598.261 1598.299 1598.316 1598.291 1598.27 1598.254 1598.248 1598.454 1598.765 1598.917 1598.882 1598.784 1598.62 1598.308 1597.88 1597.427 1597.002 1596.666 1596.499 1596.517 1596.699 1596.971 1597.261 1597.522 1597.809 1598.262 1598.858 1599.346 1599.442 1599.247 1598.986 1598.699 1598.434 1598.473 1599.026 1599.763 1600.316 1600.629 1600.782 1600.773 1600.669 1600.609 1600.582 1600.551 1600.534 1600.516 1600.497 1600.498 1600.465 1600.417 1600.333 1600.142 1599.856 1599.522 1599.107 1598.591 1597.967 1597.264 1596.563 1595.84 1594.995 1594.062 1593.141 1592.196 1591.202 1590.145 1588.987 1587.728 1586.443 1585.203 1583.967 1582.692 1581.385 1580.053 1578.677 1577.298 1576.004 1574.927 1574.214 1573.806 1573.53 1573.34 1573.218 1573.113 1572.911 1572.509 1572.071 1571.635 1571.079 1570.335 1569.332 1568.248 1567.688 1567.899 1568.346 1568.743 1569.199 1569.671 1569.891 1569.9 1569.714 1569.196 1568.514 1567.891 1567.506 1567.456 1567.658 1567.932 1568.037 1567.861 1567.622 1567.417 1567.147 1566.818 1566.555 1566.394 1566.176 1565.684 1565.007
1650.919 1650.888 1650.808 1650.737 1650.778 1650.889 1650.958 1650.971 1650.9 1650.846 1650.783 1650.68 1650.671 1650.739 1650.726 1650.592 1650.358 1650.115 1649.962 1649.84 1649.674 1649.447 1649.176 1648.877 1648.596 1648.444 1648.346 1648.167 1647.926 1647.662 1647.322 1646.796 1646.037 1645.321 1644.892 1644.458 1643.703 1642.777 1641.901 1641.14 1640.513 1640.013 1639.61 1639.142 1638.572 1638.051 1637.651 1637.319 1637.083 1636.994 1636.963 1636.85 1636.609 1636.337 1636.179 1636.213 1636.365 1636.558 1636.826 1637.057 1637.157 1637.168 1637.111 1637.012 1636.944 1636.958 1636.968 1637.073 1637.463 1638.025 1638.608 1638.886 1638.456 1637.782 1637.299 1636.7 1635.8 1634.776 1633.743 1632.713 1631.67 1630.708 1629.997 1629.374 1628.612 1627.857 1627.298 1627.055 1627.068 1627.19 1627.342 1627.505 1627.666 1627.818 1627.965 1628.11 1628.252 1628.386 1628.554 1628.914 1629.594 1630.502 1631.269 1631.311 1630.555 1629.68 1629.158 1628.978 1629.038 1629.102 1629.066 1628.994 1628.925 1628.892 1628.852 1628.604 1627.948 1626.898 1625.586 1624.155 1622.87 1621.89 1621.159 1620.598 1620.165 1619.842 1619.508 1619.219 1619.209 1619.47 1619.701 1619.726 1619.655 1619.59 1619.516 1619.406 1619.366 1619.429 1619.495 1619.439 1619.172 1618.816 1618.464 1618.031 1617.515 1617.016 1616.55 1615.858 1614.827 1614.024 1613.678 1613.527 1613.418 1613.311 1613.112 1612.758 1612.241 1611.51 1610.726 1610.134 1609.69 1609.288 1608.969 1608.825 1608.831 1608.894 1608.956 1609.037 1609.183 1609.299 1609.174 1608.755 1608.167 1607.505 1606.763 1606.119 1605.544 1605.045 1604.896 1605.028 1605.225 1605.439 1605.653 1605.798 1605.802 1605.597 1605.278 1605.073 1604.899 1604.46 1603.886 1603.336 1602.877 1602.598 1602.35 1602.065 1601.842 1601.699 1601.558 1601.369 1601.162 1600.966 1600.848 1600.856 1600.809 1600.581 1600.158 1599.729 1599.533 1599.459 1599.31 1599.097 1598.875 1598.67 1598.506 1598.376 1598.286 1598.226 1598.132 1597.971 1597.775 1597.635 1597.706 1598.032 1598.437 1598.772 1598.916 1598.786 1598.442 1597.995 1597.494 1596.975 1596.533 1596.307 1596.294 1596.386 1596.519 1596.673 1596.85 1597.022 1597.227 1597.639 1598.25 1598.843 1599.122 1599.05 1598.858 1598.643 1598.414 1598.325 1598.571 1599.108 1599.686 1600.005 1600.126 1600.111 1599.946 1599.829 1599.789 1599.747 1599.693 1599.639 1599.605 1599.599 1599.59 1599.588 1599.52 1599.35 1599.125 1598.877 1598.567 1598.139 1597.582 1596.953 1596.349 1595.7 1594.888 1594.018 1593.145 1592.188 1591.186 1590.142 1589.009 1587.796 1586.545 1585.276 1583.986 1582.691 1581.41 1580.12 1578.755 1577.372 1576.09 1574.927 1574.013 1573.427 1573.107 1572.918 1572.789 1572.673 1572.467 1572.151 1571.811 1571.32 1570.637 1569.908 1569.088 1568.077 1567.37 1567.433 1567.778 1568.117 1568.554 1569.015 1569.297 1569.36 1569.156 1568.635 1567.981 1567.367 1566.958 1566.921 1567.126 1567.39 1567.548 1567.408 1567.172 1567.012 1566.744 1566.275 1565.817 1565.478 1565.135 1564.564 1563.774
1649.843 1649.827 1649.798 1649.775 1649.865 1650.121 1650.417 1650.62 1650.673 1650.64 1650.568 1650.487 1650.501 1650.567 1650.471 1650.213 1649.886 1649.641 1649.572 1649.541 1649.415 1649.205 1648.964 1648.691 1648.432 1648.25 1648.092 1647.855 1647.532 1647.208 1646.877 1646.449 1645.923 1645.459 1645.21 1644.85 1644.082 1643.121 1642.199 1641.442 1640.864 1640.36 1639.881 1639.306 1638.623 1638.016 1637.567 1637.181 1636.845 1636.641 1636.527 1636.394 1636.215 1635.987 1635.812 1635.854 1636.052 1636.284 1636.553 1636.84 1637.069 1637.133 1637.031 1636.906 1636.909 1636.997 1636.915 1636.728 1636.973 1637.568 1638.051 1638.096 1637.579 1636.852 1636.111 1635.243 1634.233 1633.171 1632.127 1631.116 1630.114 1629.297 1628.882 1628.49 1627.805 1627.165 1626.837 1626.823 1626.971 1627.135 1627.291 1627.452 1627.611 1627.764 1627.914 1628.058 1628.198 1628.343 1628.601 1629.142 1629.951 1630.912 1631.573 1631.24 1630.192 1629.364 1628.997 1628.891 1628.924 1628.959 1628.92 1628.848 1628.804 1628.797 1628.626 1628.015 1627.093 1626.063 1624.878 1623.534 1622.315 1621.42 1620.762 1620.203 1619.702 1619.286 1618.899 1618.562 1618.46 1618.653 1618.951 1619.151 1619.157 1619.055 1618.965 1618.9 1618.9 1618.953 1618.998 1618.948 1618.715 1618.408 1618.054 1617.592 1617.123 1616.756 1616.398 1615.784 1614.777 1613.807 1613.187 1612.864 1612.689 1612.579 1612.434 1612.119 1611.622 1610.979 1610.307 1609.789 1609.38 1608.994 1608.711 1608.596 1608.585 1608.663 1608.821 1609.045 1609.282 1609.43 1609.342 1608.898 1608.211 1607.411 1606.546 1605.813 1605.197 1604.736 1604.717 1604.986 1605.284 1605.523 1605.625 1605.589 1605.422 1605.123 1604.824 1604.64 1604.466 1604.122 1603.654 1603.18 1602.773 1602.466 1602.134 1601.78 1601.494 1601.326 1601.221 1601.034 1600.792 1600.558 1600.376 1600.304 1600.248 1600.115 1599.882 1599.647 1599.564 1599.538 1599.406 1599.2 1598.997 1598.823 1598.667 1598.522 1598.373 1598.167 1597.941 1597.695 1597.362 1597.071 1597.097 1597.41 1597.821 1598.244 1598.552 1598.538 1598.217 1597.799 1597.321 1596.789 1596.349 1596.168 1596.172 1596.206 1596.229 1596.236 1596.267 1596.337 1596.493 1596.941 1597.637 1598.304 1598.701 1598.739 1598.588 1598.404 1598.236 1598.162 1598.263 1598.594 1599.057 1599.35 1599.456 1599.408 1599.205 1599.038 1598.957 1598.89 1598.815 1598.729 1598.655 1598.627 1598.61 1598.621 1598.614 1598.52 1598.368 1598.199 1597.964 1597.611 1597.145 1596.599 1596.056 1595.47 1594.73 1593.94 1593.118 1592.169 1591.162 1590.095 1588.963 1587.818 1586.626 1585.348 1584.026 1582.703 1581.41 1580.153 1578.86 1577.506 1576.194 1574.94 1573.795 1572.962 1572.523 1572.302 1572.147 1571.995 1571.804 1571.612 1571.326 1570.77 1570.077 1569.426 1568.732 1567.84 1567.094 1567.006 1567.27 1567.611 1568.069 1568.509 1568.769 1568.803 1568.54 1568.021 1567.435 1566.87 1566.481 1566.469 1566.646 1566.83 1566.975 1566.926 1566.785 1566.666 1566.373 1565.854 1565.307 1564.816 1564.329 1563.722 1562.931
1649.036 1649.013 1648.955 1648.882 1648.975 1649.317 1649.756 1650.124 1650.316 1650.346 1650.299 1650.221 1650.15 1650.079 1649.893 1649.594 1649.283 1649.103 1649.063 1648.992 1648.879 1648.823 1648.707 1648.469 1648.203 1647.97 1647.746 1647.451 1647.063 1646.703 1646.422 1646.083 1645.726 1645.501 1645.355 1645.011 1644.332 1643.414 1642.466 1641.777 1641.284 1640.778 1640.214 1639.526 1638.78 1638.162 1637.705 1637.297 1636.918 1636.611 1636.35 1636.069 1635.782 1635.53 1635.347 1635.367 1635.63 1635.976 1636.276 1636.538 1636.784 1636.919 1636.89 1636.843 1636.942 1637.082 1636.938 1636.651 1636.868 1637.399 1637.667 1637.425 1636.679 1635.689 1634.629 1633.585 1632.56 1631.521 1630.502 1629.507 1628.585 1627.968 1627.767 1627.572 1627.093 1626.716 1626.654 1626.76 1626.918 1627.079 1627.239 1627.396 1627.553 1627.711 1627.864 1628.008 1628.148 1628.341 1628.739 1629.426 1630.325 1631.307 1631.853 1631.238 1629.935 1629.126 1628.879 1628.803 1628.824 1628.87 1628.835 1628.757 1628.721 1628.689 1628.421 1627.675 1626.59 1625.421 1624.207 1622.925 1621.783 1620.957 1620.326 1619.732 1619.182 1618.734 1618.357 1618.068 1617.949 1618.042 1618.302 1618.573 1618.627 1618.503 1618.378 1618.318 1618.312 1618.335 1618.365 1618.336 1618.161 1617.901 1617.549 1617.101 1616.722 1616.467 1616.178 1615.639 1614.767 1613.841 1613.132 1612.636 1612.21 1611.877 1611.712 1611.492 1611.023 1610.452 1609.938 1609.489 1609.075 1608.705 1608.433 1608.275 1608.236 1608.309 1608.49 1608.808 1609.157 1609.371 1609.373 1608.998 1608.261 1607.349 1606.435 1605.765 1605.27 1604.901 1604.937 1605.206 1605.386 1605.435 1605.373 1605.227 1604.976 1604.683 1604.456 1604.284 1604.12 1603.895 1603.563 1603.204 1602.851 1602.472 1602.035 1601.607 1601.283 1601.109 1600.996 1600.796 1600.533 1600.274 1600.044 1599.879 1599.778 1599.706 1599.613 1599.534 1599.542 1599.571 1599.488 1599.313 1599.131 1598.964 1598.794 1598.658 1598.524 1598.229 1597.84 1597.427 1596.965 1596.643 1596.636 1596.829 1597.13 1597.531 1597.923 1598.091 1597.92 1597.586 1597.178 1596.678 1596.233 1595.996 1595.926 1595.909 1595.883 1595.819 1595.783 1595.807 1595.909 1596.327 1597.043 1597.735 1598.209 1598.386 1598.302 1598.135 1598.023 1598.002 1598.072 1598.276 1598.599 1598.85 1598.901 1598.744 1598.475 1598.244 1598.088 1597.986 1597.917 1597.821 1597.694 1597.619 1597.599 1597.628 1597.672 1597.643 1597.564 1597.458 1597.258 1596.944 1596.552 1596.095 1595.62 1595.102 1594.458 1593.763 1593.007 1592.105 1591.1 1590.031 1588.925 1587.807 1586.661 1585.425 1584.109 1582.753 1581.423 1580.15 1578.885 1577.558 1576.221 1574.917 1573.664 1572.625 1571.924 1571.578 1571.419 1571.301 1571.175 1571.033 1570.738 1570.181 1569.556 1568.965 1568.322 1567.543 1566.837 1566.633 1566.814 1567.191 1567.724 1568.197 1568.451 1568.44 1568.114 1567.572 1567.016 1566.495 1566.119 1566.067 1566.186 1566.314 1566.432 1566.48 1566.466 1566.348 1565.969 1565.421 1564.848 1564.242 1563.626 1563.018 1562.29
1648.443 1648.317 1648.194 1648.096 1648.26 1648.711 1649.252 1649.725 1649.991 1650.031 1649.97 1649.85 1649.639 1649.406 1649.171 1648.89 1648.6 1648.452 1648.411 1648.328 1648.292 1648.342 1648.254 1648.02 1647.763 1647.512 1647.243 1646.897 1646.477 1646.111 1645.878 1645.612 1645.313 1645.168 1645.104 1644.859 1644.286 1643.463 1642.617 1642.015 1641.554 1641.024 1640.384 1639.652 1638.925 1638.333 1637.87 1637.446 1637.057 1636.67 1636.218 1635.788 1635.453 1635.225 1635.076 1635.041 1635.254 1635.671 1636.018 1636.231 1636.401 1636.527 1636.594 1636.784 1637.162 1637.28 1636.97 1636.7 1636.926 1637.314 1637.334 1636.858 1635.869 1634.551 1633.155 1631.922 1630.883 1629.884 1628.887 1627.942 1627.202 1626.805 1626.688 1626.639 1626.506 1626.458 1626.558 1626.708 1626.869 1627.029 1627.186 1627.341 1627.499 1627.659 1627.814 1627.958 1628.115 1628.4 1628.961 1629.773 1630.724 1631.588 1631.844 1630.991 1629.66 1628.917 1628.722 1628.694 1628.752 1628.803 1628.761 1628.688 1628.661 1628.589 1628.305 1627.674 1626.625 1625.318 1623.922 1622.581 1621.461 1620.566 1619.815 1619.148 1618.612 1618.219 1617.916 1617.708 1617.583 1617.579 1617.749 1618.014 1618.204 1618.143 1617.928 1617.765 1617.685 1617.683 1617.719 1617.714 1617.599 1617.379 1617.048 1616.667 1616.383 1616.167 1615.875 1615.403 1614.724 1613.964 1613.282 1612.67 1611.98 1611.366 1611.114 1610.942 1610.513 1610.019 1609.641 1609.276 1608.847 1608.411 1608.066 1607.896 1607.876 1607.944 1608.126 1608.458 1608.779 1608.89 1608.896 1608.71 1608.136 1607.253 1606.374 1605.827 1605.478 1605.201 1605.169 1605.239 1605.218 1605.128 1605.003 1604.812 1604.542 1604.301 1604.12 1603.988 1603.926 1603.796 1603.53 1603.273 1603.049 1602.711 1602.237 1601.7 1601.217 1600.96 1600.807 1600.586 1600.33 1600.08 1599.844 1599.646 1599.513 1599.452 1599.424 1599.391 1599.38 1599.402 1599.347 1599.24 1599.166 1599.065 1598.906 1598.787 1598.702 1598.434 1598.008 1597.472 1596.861 1596.421 1596.333 1596.43 1596.581 1596.844 1597.214 1597.475 1597.423 1597.194 1596.888 1596.421 1595.938 1595.705 1595.621 1595.568 1595.524 1595.445 1595.419 1595.488 1595.614 1595.938 1596.525 1597.166 1597.679 1597.982 1598.003 1597.896 1597.854 1597.876 1597.929 1598.06 1598.296 1598.462 1598.403 1598.142 1597.807 1597.507 1597.273 1597.119 1597.012 1596.892 1596.767 1596.681 1596.649 1596.679 1596.723 1596.706 1596.655 1596.588 1596.45 1596.206 1595.894 1595.518 1595.089 1594.633 1594.108 1593.508 1592.806 1591.952 1590.976 1589.934 1588.858 1587.76 1586.654 1585.48 1584.181 1582.786 1581.437 1580.143 1578.861 1577.547 1576.209 1574.892 1573.602 1572.386 1571.391 1570.831 1570.601 1570.557 1570.541 1570.435 1570.174 1569.695 1569.11 1568.521 1567.895 1567.216 1566.641 1566.418 1566.51 1566.889 1567.448 1567.946 1568.237 1568.253 1567.947 1567.39 1566.775 1566.221 1565.864 1565.767 1565.809 1565.88 1565.953 1566.056 1566.129 1565.963 1565.496 1564.89 1564.211 1563.478 1562.767 1562.13 1561.484
1647.931 1647.621 1647.43 1647.385 1647.687 1648.25 1648.86 1649.402 1649.713 1649.713 1649.546 1649.315 1649.013 1648.713 1648.486 1648.234 1647.939 1647.823 1647.834 1647.798 1647.789 1647.788 1647.669 1647.474 1647.199 1646.879 1646.561 1646.157 1645.656 1645.303 1645.205 1645.067 1644.806 1644.627 1644.556 1644.382 1643.931 1643.26 1642.62 1642.16 1641.73 1641.144 1640.431 1639.704 1639.04 1638.492 1638.035 1637.591 1637.106 1636.543 1635.976 1635.516 1635.183 1634.991 1634.879 1634.805 1634.928 1635.297 1635.602 1635.8 1635.995 1636.132 1636.171 1636.29 1636.783 1637.172 1636.974 1636.775 1636.818 1636.687 1636.222 1635.557 1634.591 1633.246 1631.671 1630.318 1629.302 1628.302 1627.359 1626.676 1626.261 1626.073 1626.038 1626.115 1626.223 1626.342 1626.488 1626.649 1626.81 1626.97 1627.131 1627.286 1627.443 1627.603 1627.761 1627.908 1628.132 1628.591 1629.318 1630.24 1631.168 1631.701 1631.459 1630.425 1629.26 1628.655 1628.539 1628.593 1628.653 1628.67 1628.632 1628.582 1628.548 1628.415 1628.085 1627.55 1626.624 1625.276 1623.743 1622.319 1621.198 1620.273 1619.453 1618.741 1618.175 1617.785 1617.554 1617.412 1617.281 1617.152 1617.146 1617.408 1617.787 1617.866 1617.627 1617.36 1617.103 1616.898 1616.855 1616.934 1616.974 1616.84 1616.565 1616.29 1616.081 1615.846 1615.464 1614.935 1614.344 1613.755 1613.183 1612.514 1611.669 1610.947 1610.632 1610.43 1610.046 1609.663 1609.368 1609.027 1608.604 1608.148 1607.774 1607.593 1607.554 1607.633 1607.853 1608.146 1608.382 1608.387 1608.255 1608.074 1607.662 1607.003 1606.329 1605.876 1605.558 1605.281 1605.105 1604.993 1604.882 1604.763 1604.612 1604.388 1604.151 1603.96 1603.814 1603.795 1603.874 1603.785 1603.512 1603.295 1603.175 1602.942 1602.507 1601.977 1601.439 1601.022 1600.746 1600.488 1600.213 1599.944 1599.706 1599.536 1599.42 1599.348 1599.32 1599.27 1599.184 1599.119 1599.035 1598.956 1598.957 1598.965 1598.922 1598.885 1598.873 1598.712 1598.304 1597.694 1597.004 1596.414 1596.179 1596.202 1596.27 1596.384 1596.596 1596.805 1596.812 1596.655 1596.338 1595.807 1595.438 1595.383 1595.371 1595.287 1595.175 1595.075 1595.084 1595.195 1595.377 1595.7 1596.173 1596.689 1597.152 1597.516 1597.687 1597.709 1597.726 1597.765 1597.807 1597.88 1597.996 1598.038 1597.908 1597.625 1597.264 1596.899 1596.593 1596.353 1596.131 1595.959 1595.865 1595.758 1595.68 1595.695 1595.747 1595.753 1595.711 1595.659 1595.577 1595.413 1595.174 1594.879 1594.508 1594.115 1593.692 1593.17 1592.53 1591.753 1590.828 1589.818 1588.776 1587.704 1586.613 1585.447 1584.152 1582.782 1581.447 1580.117 1578.795 1577.5 1576.194 1574.875 1573.558 1572.263 1571.095 1570.264 1569.858 1569.791 1569.836 1569.795 1569.588 1569.196 1568.668 1568.077 1567.434 1566.831 1566.473 1566.351 1566.406 1566.763 1567.293 1567.751 1568.026 1568.034 1567.749 1567.246 1566.593 1565.953 1565.621 1565.578 1565.604 1565.617 1565.589 1565.54 1565.49 1565.297 1564.879 1564.281 1563.467 1562.581 1561.819 1561.204 1560.694
1647.545 1647.085 1646.808 1646.845 1647.249 1647.849 1648.476 1649.053 1649.384 1649.331 1649.062 1648.718 1648.346 1648.023 1647.832 1647.654 1647.445 1647.38 1647.408 1647.378 1647.324 1647.276 1647.186 1647.006 1646.678 1646.255 1645.844 1645.389 1644.794 1644.339 1644.308 1644.392 1644.252 1644.038 1643.899 1643.709 1643.338 1642.841 1642.369 1641.947 1641.519 1641.012 1640.429 1639.807 1639.168 1638.552 1637.972 1637.418 1636.846 1636.244 1635.728 1635.296 1634.935 1634.751 1634.654 1634.547 1634.646 1635.043 1635.283 1635.303 1635.511 1635.693 1635.617 1635.598 1636.089 1636.7 1636.674 1636.492 1636.288 1635.6 1634.634 1633.712 1632.758 1631.545 1630.035 1628.725 1627.809 1626.996 1626.29 1625.863 1625.702 1625.715 1625.819 1625.978 1626.14 1626.282 1626.427 1626.585 1626.748 1626.911 1627.073 1627.224 1627.374 1627.541 1627.734 1627.999 1628.417 1629.016 1629.82 1630.79 1631.474 1631.397 1630.746 1629.77 1628.816 1628.417 1628.435 1628.523 1628.548 1628.506 1628.433 1628.354 1628.245 1627.985 1627.565 1627.006 1626.07 1624.741 1623.283 1621.916 1620.768 1619.789 1618.985 1618.376 1617.888 1617.51 1617.304 1617.176 1617.012 1616.833 1616.688 1616.769 1617.17 1617.428 1617.292 1616.951 1616.537 1616.196 1616.088 1616.174 1616.247 1616.175 1616.053 1615.913 1615.729 1615.463 1615.031 1614.473 1613.912 1613.427 1612.922 1612.236 1611.436 1610.789 1610.381 1610.036 1609.675 1609.379 1609.085 1608.688 1608.246 1607.844 1607.57 1607.465 1607.463 1607.591 1607.782 1607.903 1608.003 1607.955 1607.691 1607.36 1606.965 1606.524 1606.103 1605.745 1605.449 1605.165 1604.884 1604.664 1604.516 1604.379 1604.198 1603.99 1603.801 1603.64 1603.578 1603.701 1603.848 1603.774 1603.503 1603.297 1603.217 1603.01 1602.586 1602.095 1601.631 1601.202 1600.834 1600.493 1600.151 1599.8 1599.497 1599.357 1599.311 1599.276 1599.231 1599.123 1598.965 1598.825 1598.71 1598.632 1598.636 1598.682 1598.715 1598.737 1598.764 1598.694 1598.375 1597.822 1597.159 1596.508 1596.113 1596.046 1596.078 1596.069 1596.089 1596.197 1596.219 1596.061 1595.709 1595.251 1595.056 1595.101 1595.143 1595.037 1594.785 1594.631 1594.684 1594.878 1595.173 1595.557 1596.002 1596.462 1596.909 1597.327 1597.626 1597.768 1597.828 1597.864 1597.853 1597.778 1597.692 1597.593 1597.417 1597.119 1596.73 1596.315 1595.926 1595.585 1595.27 1595.027 1594.902 1594.774 1594.69 1594.699 1594.749 1594.779 1594.763 1594.724 1594.664 1594.547 1594.363 1594.131 1593.837 1593.507 1593.15 1592.72 1592.166 1591.494 1590.682 1589.735 1588.716 1587.642 1586.539 1585.362 1584.089 1582.794 1581.46 1580.091 1578.763 1577.481 1576.187 1574.864 1573.551 1572.28 1571.071 1570.008 1569.303 1569.047 1569.048 1569.064 1568.937 1568.599 1568.1 1567.496 1566.884 1566.485 1566.34 1566.314 1566.434 1566.766 1567.192 1567.625 1567.942 1567.981 1567.634 1567.064 1566.361 1565.687 1565.428 1565.479 1565.528 1565.478 1565.324 1565.094 1564.856 1564.599 1564.205 1563.559 1562.619 1561.653 1560.925 1560.471 1560.215
1647.396 1646.826 1646.394 1646.381 1646.812 1647.439 1648.08 1648.658 1648.973 1648.886 1648.584 1648.186 1647.756 1647.435 1647.28 1647.177 1647.08 1647.035 1647.028 1646.974 1646.901 1646.895 1646.828 1646.59 1646.223 1645.744 1645.214 1644.687 1644.112 1643.718 1643.678 1643.745 1643.632 1643.376 1643.143 1642.901 1642.561 1642.168 1641.755 1641.319 1640.953 1640.566 1640.107 1639.635 1639.13 1638.512 1637.828 1637.177 1636.588 1636.101 1635.74 1635.351 1634.958 1634.769 1634.606 1634.362 1634.391 1634.649 1634.775 1634.831 1635.13 1635.3 1635.159 1635.27 1635.729 1636.092 1636.034 1635.705 1635.131 1634.163 1633.011 1631.882 1630.781 1629.615 1628.299 1627.179 1626.507 1626.05 1625.652 1625.437 1625.458 1625.586 1625.741 1625.91 1626.063 1626.21 1626.365 1626.523 1626.689 1626.853 1627.01 1627.17 1627.333 1627.508 1627.759 1628.23 1628.866 1629.565 1630.425 1631.308 1631.524 1630.857 1629.944 1629.103 1628.498 1628.37 1628.455 1628.495 1628.457 1628.345 1628.175 1628.016 1627.81 1627.395 1626.848 1626.173 1625.136 1623.829 1622.521 1621.357 1620.226 1619.123 1618.349 1617.893 1617.57 1617.299 1617.112 1616.972 1616.83 1616.686 1616.462 1616.302 1616.486 1616.736 1616.688 1616.362 1615.97 1615.732 1615.685 1615.74 1615.751 1615.688 1615.621 1615.512 1615.31 1614.995 1614.551 1614.051 1613.58 1613.148 1612.663 1612.051 1611.372 1610.744 1610.213 1609.785 1609.447 1609.151 1608.794 1608.355 1607.916 1607.581 1607.44 1607.431 1607.469 1607.635 1607.759 1607.703 1607.618 1607.437 1607.078 1606.689 1606.342 1606.05 1605.803 1605.549 1605.295 1605.018 1604.699 1604.404 1604.181 1604.003 1603.821 1603.64 1603.47 1603.369 1603.462 1603.679 1603.837 1603.78 1603.508 1603.245 1603.117 1602.949 1602.561 1602.069 1601.621 1601.219 1600.824 1600.415 1600.011 1599.576 1599.185 1599.039 1599.049 1599.06 1599.012 1598.876 1598.689 1598.525 1598.395 1598.296 1598.274 1598.308 1598.337 1598.354 1598.379 1598.391 1598.271 1597.882 1597.269 1596.585 1596.052 1595.842 1595.787 1595.703 1595.644 1595.687 1595.704 1595.603 1595.363 1595.047 1594.878 1594.874 1594.847 1594.651 1594.323 1594.174 1594.332 1594.655 1595.039 1595.451 1595.901 1596.377 1596.87 1597.377 1597.782 1598.006 1598.052 1597.987 1597.833 1597.604 1597.385 1597.193 1596.95 1596.574 1596.131 1595.678 1595.219 1594.816 1594.462 1594.167 1594.003 1593.87 1593.757 1593.721 1593.746 1593.785 1593.791 1593.772 1593.73 1593.646 1593.52 1593.336 1593.094 1592.822 1592.529 1592.192 1591.744 1591.159 1590.438 1589.583 1588.612 1587.546 1586.435 1585.271 1584.019 1582.719 1581.386 1580.067 1578.786 1577.502 1576.182 1574.848 1573.544 1572.293 1571.093 1569.935 1568.959 1568.381 1568.167 1568.147 1568.127 1567.844 1567.337 1566.798 1566.377 1566.162 1566.115 1566.193 1566.372 1566.581 1566.887 1567.396 1567.824 1567.932 1567.557 1566.814 1565.996 1565.398 1565.26 1565.367 1565.417 1565.259 1564.927 1564.571 1564.259 1563.889 1563.315 1562.511 1561.619 1560.901 1560.437 1560.198 1560.096
1647.407 1646.835 1646.325 1646.197 1646.544 1647.118 1647.696 1648.203 1648.45 1648.349 1648.003 1647.534 1647.135 1646.875 1646.698 1646.602 1646.633 1646.668 1646.638 1646.531 1646.417 1646.44 1646.417 1646.167 1645.793 1645.313 1644.699 1644.084 1643.574 1643.266 1643.15 1643.095 1642.944 1642.641 1642.319 1642.031 1641.715 1641.352 1640.947 1640.584 1640.323 1639.988 1639.592 1639.291 1638.975 1638.401 1637.698 1637.058 1636.506 1636.118 1635.908 1635.617 1635.276 1635.083 1634.818 1634.485 1634.389 1634.337 1634.217 1634.347 1634.855 1635.143 1635.074 1635.232 1635.409 1635.314 1635.049 1634.473 1633.581 1632.529 1631.397 1630.174 1628.911 1627.708 1626.608 1625.873 1625.572 1625.39 1625.244 1625.254 1625.391 1625.544 1625.692 1625.839 1625.973 1626.129 1626.3 1626.453 1626.607 1626.779 1626.948 1627.124 1627.301 1627.505 1627.865 1628.484 1629.26 1630.126 1631.038 1631.585 1631.265 1630.323 1629.417 1628.753 1628.408 1628.403 1628.453 1628.401 1628.285 1628.14 1627.898 1627.618 1627.252 1626.636 1625.886 1625.124 1624.094 1622.872 1621.771 1620.785 1619.659 1618.441 1617.623 1617.307 1617.178 1617.072 1616.966 1616.858 1616.761 1616.612 1616.321 1615.988 1615.843 1615.889 1615.891 1615.735 1615.548 1615.489 1615.535 1615.586 1615.567 1615.481 1615.355 1615.189 1614.929 1614.517 1614.042 1613.629 1613.285 1612.869 1612.384 1611.84 1611.194 1610.543 1609.99 1609.553 1609.203 1608.883 1608.506 1608.075 1607.695 1607.454 1607.366 1607.341 1607.355 1607.523 1607.582 1607.412 1607.166 1606.823 1606.43 1606.107 1605.835 1605.636 1605.571 1605.508 1605.307 1605.014 1604.683 1604.349 1604.011 1603.691 1603.463 1603.295 1603.162 1603.195 1603.446 1603.707 1603.838 1603.78 1603.515 1603.194 1602.945 1602.732 1602.407 1601.974 1601.524 1601.115 1600.726 1600.283 1599.813 1599.317 1598.892 1598.729 1598.744 1598.745 1598.672 1598.543 1598.384 1598.214 1598.045 1597.912 1597.865 1597.876 1597.891 1597.901 1597.926 1597.983 1597.996 1597.774 1597.278 1596.626 1596.003 1595.623 1595.466 1595.38 1595.364 1595.428 1595.445 1595.37 1595.192 1594.931 1594.711 1594.567 1594.394 1594.131 1593.897 1593.94 1594.256 1594.605 1594.943 1595.339 1595.799 1596.301 1596.842 1597.371 1597.74 1597.952 1598.012 1597.878 1597.621 1597.33 1597.058 1596.81 1596.493 1596.038 1595.553 1595.073 1594.567 1594.113 1593.729 1593.407 1593.219 1593.072 1592.909 1592.795 1592.765 1592.788 1592.804 1592.799 1592.787 1592.759 1592.678 1592.522 1592.313 1592.091 1591.873 1591.614 1591.268 1590.767 1590.101 1589.336 1588.434 1587.392 1586.296 1585.185 1583.97 1582.639 1581.324 1580.073 1578.822 1577.523 1576.182 1574.865 1573.582 1572.299 1571.065 1569.867 1568.725 1567.855 1567.4 1567.242 1567.196 1566.947 1566.468 1566.035 1565.806 1565.745 1565.804 1565.976 1566.201 1566.394 1566.661 1567.156 1567.577 1567.64 1567.181 1566.321 1565.488 1565.021 1564.946 1565.017 1565.03 1564.845 1564.421 1563.899 1563.391 1562.807 1562.109 1561.416 1560.859 1560.53 1560.35 1560.234 1560.131
1647.431 1646.911 1646.435 1646.277 1646.587 1647.093 1647.506 1647.793 1647.892 1647.727 1647.266 1646.741 1646.439 1646.296 1646.138 1646.032 1646.114 1646.223 1646.141 1645.906 1645.707 1645.698 1645.727 1645.608 1645.341 1644.907 1644.242 1643.494 1642.959 1642.671 1642.502 1642.383 1642.197 1641.872 1641.52 1641.197 1640.87 1640.516 1640.164 1639.918 1639.736 1639.459 1639.171 1639.001 1638.794 1638.253 1637.578 1637.012 1636.51 1636.145 1636.009 1635.874 1635.674 1635.473 1635.151 1634.829 1634.639 1634.39 1634.085 1634.098 1634.566 1634.938 1634.963 1634.895 1634.614 1634.157 1633.668 1632.968 1632.003 1630.949 1629.83 1628.535 1627.172 1626.013 1625.268 1624.983 1624.957 1624.972 1625.032 1625.163 1625.33 1625.486 1625.628 1625.757 1625.883 1626.055 1626.242 1626.396 1626.538 1626.714 1626.905 1627.095 1627.287 1627.571 1628.087 1628.82 1629.693 1630.633 1631.409 1631.602 1630.954 1629.929 1629.089 1628.49 1628.124 1628.022 1627.994 1627.888 1627.736 1627.619 1627.405 1627.039 1626.481 1625.589 1624.609 1623.85 1623.008 1622.054 1621.168 1620.295 1619.3 1618.157 1617.305 1617.052 1617.07 1617.032 1616.902 1616.81 1616.725 1616.517 1616.156 1615.722 1615.367 1615.202 1615.17 1615.158 1615.178 1615.276 1615.413 1615.503 1615.47 1615.337 1615.156 1614.901 1614.487 1613.962 1613.533 1613.258 1612.999 1612.615 1612.147 1611.608 1610.931 1610.234 1609.655 1609.191 1608.842 1608.551 1608.218 1607.854 1607.589 1607.436 1607.344 1607.265 1607.195 1607.218 1607.142 1606.917 1606.612 1606.218 1605.853 1605.591 1605.371 1605.25 1605.358 1605.507 1605.428 1605.12 1604.72 1604.328 1603.884 1603.388 1603.076 1602.895 1602.755 1602.867 1603.277 1603.679 1603.83 1603.767 1603.521 1603.192 1602.862 1602.531 1602.202 1601.857 1601.445 1601.018 1600.621 1600.168 1599.679 1599.222 1598.824 1598.553 1598.448 1598.381 1598.269 1598.126 1597.953 1597.768 1597.588 1597.47 1597.429 1597.428 1597.438 1597.455 1597.484 1597.533 1597.558 1597.442 1597.131 1596.605 1595.943 1595.392 1595.164 1595.128 1595.185 1595.283 1595.302 1595.187 1594.949 1594.672 1594.424 1594.196 1593.948 1593.709 1593.637 1593.895 1594.351 1594.723 1594.998 1595.304 1595.7 1596.188 1596.723 1597.192 1597.476 1597.646 1597.755 1597.692 1597.451 1597.162 1596.867 1596.546 1596.133 1595.593 1595.042 1594.523 1593.978 1593.473 1593.057 1592.714 1592.48 1592.298 1592.116 1591.949 1591.837 1591.803 1591.812 1591.82 1591.841 1591.857 1591.809 1591.691 1591.538 1591.376 1591.225 1591.041 1590.772 1590.327 1589.733 1589.052 1588.193 1587.177 1586.091 1585.003 1583.871 1582.642 1581.374 1580.094 1578.806 1577.5 1576.198 1574.952 1573.705 1572.394 1571.073 1569.772 1568.478 1567.369 1566.722 1566.427 1566.275 1566.038 1565.664 1565.348 1565.212 1565.263 1565.473 1565.749 1566.032 1566.296 1566.589 1566.979 1567.222 1567.064 1566.485 1565.677 1565.009 1564.683 1564.646 1564.686 1564.627 1564.347 1563.836 1563.172 1562.486 1561.861 1561.309 1560.879 1560.608 1560.472 1560.387 1560.303 1560.222
1647.11 1646.669 1646.325 1646.326 1646.681 1647.096 1647.377 1647.524 1647.467 1647.087 1646.465 1645.967 1645.803 1645.764 1645.645 1645.568 1645.651 1645.758 1645.617 1645.254 1644.924 1644.803 1644.815 1644.808 1644.724 1644.421 1643.714 1642.851 1642.269 1641.985 1641.792 1641.616 1641.407 1641.102 1640.778 1640.48 1640.173 1639.84 1639.524 1639.328 1639.207 1639.042 1638.855 1638.684 1638.458 1638.033 1637.506 1637.011 1636.532 1636.154 1636.031 1636.014 1635.877 1635.616 1635.288 1635.031 1634.876 1634.669 1634.462 1634.39 1634.324 1634.153 1633.991 1633.762 1633.248 1632.581 1631.929 1631.232 1630.378 1629.402 1628.346 1627.127 1625.865 1624.904 1624.488 1624.506 1624.656 1624.792 1624.937 1625.088 1625.252 1625.409 1625.546 1625.677 1625.826 1625.992 1626.162 1626.331 1626.496 1626.684 1626.887 1627.088 1627.357 1627.802 1628.49 1629.35 1630.267 1631.115 1631.623 1631.516 1630.708 1629.606 1628.692 1627.97 1627.422 1627.148 1627.061 1626.998 1626.91 1626.814 1626.61 1626.203 1625.487 1624.373 1623.247 1622.548 1622.013 1621.353 1620.597 1619.857 1619.138 1618.202 1617.369 1617.162 1617.237 1617.119 1616.852 1616.734 1616.651 1616.344 1615.882 1615.409 1615.033 1614.798 1614.729 1614.768 1614.85 1614.986 1615.17 1615.272 1615.149 1614.913 1614.681 1614.406 1613.98 1613.476 1613.115 1612.897 1612.658 1612.331 1611.877 1611.302 1610.603 1609.853 1609.216 1608.761 1608.446 1608.176 1607.912 1607.695 1607.549 1607.437 1607.331 1607.188 1606.985 1606.82 1606.65 1606.411 1606.092 1605.69 1605.331 1605.09 1604.932 1604.931 1605.146 1605.387 1605.384 1605.045 1604.579 1604.162 1603.681 1603.069 1602.643 1602.398 1602.257 1602.416 1602.902 1603.435 1603.706 1603.726 1603.52 1603.174 1602.779 1602.35 1601.948 1601.589 1601.215 1600.815 1600.4 1599.963 1599.533 1599.148 1598.804 1598.459 1598.162 1597.971 1597.82 1597.625 1597.419 1597.262 1597.116 1596.995 1596.94 1596.959 1596.991 1597.015 1597.045 1597.076 1597.077 1596.985 1596.792 1596.44 1595.866 1595.235 1594.884 1594.837 1594.885 1594.897 1594.921 1594.875 1594.602 1594.291 1594.06 1593.838 1593.621 1593.479 1593.478 1593.719 1594.17 1594.625 1594.99 1595.312 1595.661 1596.089 1596.546 1596.912 1597.137 1597.293 1597.427 1597.449 1597.258 1596.96 1596.666 1596.318 1595.859 1595.298 1594.688 1594.085 1593.493 1592.954 1592.493 1592.092 1591.793 1591.571 1591.365 1591.167 1590.995 1590.877 1590.833 1590.841 1590.883 1590.909 1590.881 1590.823 1590.756 1590.661 1590.55 1590.412 1590.212 1589.869 1589.358 1588.712 1587.881 1586.917 1585.874 1584.794 1583.717 1582.572 1581.332 1580.048 1578.751 1577.452 1576.192 1574.976 1573.734 1572.407 1571.027 1569.638 1568.26 1567.005 1566.134 1565.683 1565.462 1565.301 1565.096 1564.851 1564.663 1564.7 1565.109 1565.654 1566.053 1566.354 1566.629 1566.837 1566.832 1566.455 1565.814 1565.147 1564.656 1564.46 1564.492 1564.491 1564.251 1563.808 1563.188 1562.388 1561.661 1561.212 1560.944 1560.752 1560.616 1560.514 1560.429 1560.374 1560.445
1646.362 1645.982 1645.875 1646.143 1646.591 1646.971 1647.207 1647.272 1647.02 1646.472 1645.85 1645.423 1645.297 1645.279 1645.214 1645.209 1645.277 1645.297 1645.103 1644.69 1644.256 1643.968 1643.865 1643.88 1643.898 1643.65 1642.948 1642.11 1641.531 1641.211 1640.962 1640.741 1640.571 1640.338 1640.03 1639.743 1639.49 1639.248 1638.983 1638.753 1638.611 1638.522 1638.409 1638.234 1638.041 1637.783 1637.394 1636.939 1636.459 1636.038 1635.872 1635.865 1635.693 1635.37 1635.091 1634.953 1634.924 1634.82 1634.603 1634.31 1633.762 1633.062 1632.557 1632.169 1631.593 1630.824 1630.054 1629.354 1628.595 1627.721 1626.862 1625.921 1624.945 1624.323 1624.202 1624.357 1624.551 1624.713 1624.863 1625.016 1625.181 1625.339 1625.483 1625.631 1625.796 1625.954 1626.117 1626.302 1626.488 1626.688 1626.927 1627.205 1627.589 1628.206 1629.068 1630.015 1630.84 1631.396 1631.537 1631.197 1630.296 1629.037 1627.952 1627.153 1626.522 1626.108 1625.961 1625.917 1625.831 1625.712 1625.49 1625.06 1624.339 1623.258 1622.193 1621.588 1621.19 1620.63 1619.999 1619.47 1618.99 1618.315 1617.629 1617.433 1617.467 1617.229 1616.796 1616.547 1616.417 1616.054 1615.53 1615.103 1614.839 1614.635 1614.524 1614.545 1614.609 1614.695 1614.817 1614.826 1614.557 1614.24 1614.02 1613.8 1613.481 1613.092 1612.767 1612.527 1612.321 1612.05 1611.566 1610.891 1610.141 1609.404 1608.768 1608.357 1608.07 1607.775 1607.56 1607.488 1607.452 1607.389 1607.305 1607.11 1606.741 1606.404 1606.229 1606.069 1605.76 1605.287 1604.846 1604.59 1604.491 1604.589 1604.849 1605.086 1605.073 1604.725 1604.324 1604.026 1603.61 1602.961 1602.34 1601.918 1601.8 1602.039 1602.523 1603.003 1603.283 1603.356 1603.165 1602.8 1602.401 1601.979 1601.549 1601.143 1600.774 1600.41 1600.045 1599.711 1599.377 1599.013 1598.66 1598.317 1597.949 1597.625 1597.363 1597.083 1596.902 1596.871 1596.808 1596.664 1596.53 1596.49 1596.531 1596.572 1596.585 1596.574 1596.522 1596.404 1596.248 1596.061 1595.713 1595.184 1594.757 1594.567 1594.453 1594.313 1594.337 1594.397 1594.178 1593.87 1593.644 1593.451 1593.29 1593.211 1593.198 1593.31 1593.691 1594.211 1594.684 1595.059 1595.382 1595.749 1596.129 1596.402 1596.556 1596.678 1596.799 1596.852 1596.738 1596.525 1596.318 1596.041 1595.609 1595.082 1594.494 1593.849 1593.198 1592.596 1592.081 1591.633 1591.266 1590.995 1590.759 1590.532 1590.314 1590.115 1589.965 1589.894 1589.908 1589.932 1589.919 1589.918 1589.937 1589.927 1589.878 1589.783 1589.634 1589.372 1588.913 1588.278 1587.485 1586.583 1585.604 1584.565 1583.5 1582.364 1581.145 1579.896 1578.624 1577.352 1576.087 1574.835 1573.603 1572.275 1570.876 1569.492 1568.126 1566.835 1565.806 1565.146 1564.745 1564.553 1564.505 1564.391 1564.165 1564.177 1564.723 1565.504 1566.108 1566.45 1566.632 1566.657 1566.42 1565.9 1565.255 1564.692 1564.33 1564.263 1564.268 1564.063 1563.644 1563.132 1562.454 1561.665 1561.173 1560.971 1560.845 1560.733 1560.627 1560.573 1560.589 1560.704 1561.044
1645.694 1645.348 1645.434 1645.869 1646.39 1646.792 1646.981 1646.956 1646.632 1646.072 1645.515 1645.136 1644.937 1644.853 1644.86 1644.933 1644.968 1644.891 1644.644 1644.26 1643.869 1643.481 1643.174 1643.083 1643.035 1642.736 1642.118 1641.415 1640.869 1640.497 1640.185 1639.912 1639.739 1639.59 1639.356 1639.036 1638.774 1638.617 1638.409 1638.16 1637.981 1637.88 1637.761 1637.594 1637.47 1637.363 1637.122 1636.742 1636.275 1635.808 1635.572 1635.535 1635.353 1635.038 1634.844 1634.778 1634.714 1634.501 1634.092 1633.574 1632.879 1632.044 1631.313 1630.66 1629.896 1629.041 1628.208 1627.456 1626.699 1625.918 1625.282 1624.687 1624.196 1624.031 1624.125 1624.305 1624.462 1624.615 1624.783 1624.947 1625.113 1625.278 1625.437 1625.595 1625.758 1625.924 1626.12 1626.321 1626.5 1626.725 1627.066 1627.47 1627.958 1628.689 1629.697 1630.636 1631.098 1631.159 1630.918 1630.381 1629.438 1628.148 1627 1626.213 1625.591 1625.084 1624.79 1624.608 1624.422 1624.259 1624.027 1623.568 1622.856 1621.97 1621.224 1620.843 1620.527 1620.081 1619.672 1619.323 1618.934 1618.472 1618.028 1617.779 1617.598 1617.22 1616.722 1616.379 1616.144 1615.757 1615.294 1615.003 1614.815 1614.592 1614.421 1614.388 1614.436 1614.468 1614.411 1614.223 1613.876 1613.556 1613.363 1613.168 1612.868 1612.506 1612.223 1612.093 1612.029 1611.805 1611.314 1610.588 1609.743 1608.998 1608.396 1607.965 1607.62 1607.313 1607.182 1607.184 1607.221 1607.283 1607.217 1606.942 1606.485 1606.084 1605.946 1605.903 1605.66 1605.204 1604.786 1604.457 1604.194 1604.145 1604.329 1604.557 1604.586 1604.322 1604.052 1603.92 1603.66 1603.069 1602.351 1601.84 1601.648 1601.741 1602.057 1602.415 1602.635 1602.695 1602.52 1602.165 1601.787 1601.403 1600.995 1600.613 1600.306 1600.002 1599.694 1599.454 1599.226 1598.883 1598.471 1598.091 1597.713 1597.323 1596.933 1596.576 1596.441 1596.506 1596.561 1596.521 1596.393 1596.251 1596.162 1596.078 1595.982 1595.886 1595.79 1595.711 1595.638 1595.536 1595.354 1595.055 1594.711 1594.395 1594.114 1593.878 1593.87 1593.916 1593.696 1593.389 1593.143 1592.94 1592.836 1592.816 1592.819 1592.899 1593.185 1593.616 1594.079 1594.485 1594.823 1595.176 1595.538 1595.786 1595.896 1595.97 1596.052 1596.129 1596.136 1596.039 1595.893 1595.685 1595.331 1594.863 1594.354 1593.743 1593.055 1592.394 1591.844 1591.37 1590.94 1590.616 1590.363 1590.12 1589.855 1589.583 1589.346 1589.128 1589.004 1588.966 1588.933 1588.962 1589.068 1589.176 1589.223 1589.188 1589.067 1588.81 1588.359 1587.728 1586.978 1586.148 1585.238 1584.259 1583.201 1582.056 1580.865 1579.657 1578.419 1577.19 1575.936 1574.634 1573.407 1572.122 1570.749 1569.386 1568.037 1566.732 1565.594 1564.739 1564.133 1563.815 1563.782 1563.803 1563.72 1563.785 1564.342 1565.203 1565.973 1566.4 1566.475 1566.29 1565.884 1565.31 1564.669 1564.177 1563.989 1563.986 1563.836 1563.416 1562.861 1562.299 1561.724 1561.261 1561.069 1560.977 1560.871 1560.775 1560.767 1560.889 1561.098 1561.42 1561.869
1645.215 1644.897 1645.071 1645.52 1646.012 1646.407 1646.574 1646.562 1646.329 1645.832 1645.316 1644.969 1644.718 1644.57 1644.594 1644.638 1644.592 1644.469 1644.257 1643.978 1643.677 1643.311 1642.928 1642.675 1642.449 1642.074 1641.547 1640.981 1640.477 1640.054 1639.681 1639.315 1638.997 1638.834 1638.752 1638.537 1638.251 1638.036 1637.818 1637.575 1637.359 1637.19 1637.021 1636.867 1636.815 1636.843 1636.772 1636.518 1636.126 1635.684 1635.388 1635.262 1635.07 1634.798 1634.617 1634.441 1634.161 1633.766 1633.237 1632.622 1631.895 1631.001 1630.01 1628.968 1627.98 1627.138 1626.352 1625.568 1624.853 1624.358 1624.094 1623.892 1623.809 1623.895 1624.047 1624.223 1624.377 1624.531 1624.705 1624.874 1625.05 1625.228 1625.396 1625.552 1625.716 1625.903 1626.129 1626.348 1626.558 1626.86 1627.308 1627.874 1628.555 1629.448 1630.418 1630.972 1630.915 1630.549 1630.004 1629.308 1628.394 1627.248 1626.153 1625.357 1624.724 1624.113 1623.594 1623.204 1622.891 1622.65 1622.387 1621.931 1621.363 1620.796 1620.376 1620.213 1620.103 1619.881 1619.63 1619.34 1618.974 1618.6 1618.251 1617.892 1617.505 1617.083 1616.666 1616.331 1615.989 1615.552 1615.168 1614.943 1614.74 1614.504 1614.312 1614.242 1614.277 1614.221 1613.989 1613.66 1613.287 1612.955 1612.688 1612.38 1612.022 1611.74 1611.601 1611.626 1611.682 1611.508 1611.057 1610.372 1609.504 1608.723 1608.071 1607.517 1607.104 1606.86 1606.791 1606.768 1606.76 1606.841 1606.855 1606.604 1606.169 1605.807 1605.682 1605.718 1605.66 1605.379 1605.017 1604.593 1604.139 1603.803 1603.706 1603.837 1603.949 1603.887 1603.804 1603.792 1603.664 1603.202 1602.556 1602.034 1601.626 1601.349 1601.408 1601.725 1601.95 1601.986 1601.824 1601.492 1601.115 1600.76 1600.463 1600.225 1600.03 1599.799 1599.529 1599.316 1599.108 1598.748 1598.27 1597.819 1597.406 1596.986 1596.542 1596.172 1596.063 1596.173 1596.336 1596.427 1596.384 1596.213 1595.976 1595.745 1595.537 1595.348 1595.209 1595.135 1595.068 1594.96 1594.828 1594.678 1594.473 1594.184 1593.844 1593.598 1593.54 1593.443 1593.191 1592.914 1592.653 1592.453 1592.39 1592.408 1592.466 1592.619 1592.87 1593.174 1593.537 1593.945 1594.36 1594.763 1595.117 1595.363 1595.487 1595.515 1595.502 1595.534 1595.606 1595.581 1595.449 1595.278 1595.033 1594.684 1594.25 1593.649 1592.927 1592.251 1591.686 1591.177 1590.708 1590.341 1590.024 1589.709 1589.43 1589.197 1588.918 1588.552 1588.224 1588.009 1587.937 1588.015 1588.171 1588.34 1588.46 1588.478 1588.37 1588.111 1587.701 1587.113 1586.393 1585.61 1584.742 1583.805 1582.797 1581.684 1580.515 1579.344 1578.155 1576.967 1575.731 1574.407 1573.164 1571.928 1570.585 1569.203 1567.879 1566.58 1565.363 1564.383 1563.645 1563.212 1563.098 1563.145 1563.194 1563.353 1563.923 1564.818 1565.678 1566.208 1566.216 1565.822 1565.275 1564.702 1564.112 1563.713 1563.672 1563.649 1563.343 1562.834 1562.245 1561.72 1561.372 1561.193 1561.108 1561.036 1561.015 1561.042 1561.172 1561.44 1561.767 1562.125 1562.485
1644.965 1644.63 1644.777 1645.156 1645.536 1645.87 1646.055 1646.103 1645.977 1645.593 1645.155 1644.819 1644.536 1644.397 1644.376 1644.278 1644.126 1643.973 1643.769 1643.542 1643.349 1643.143 1642.851 1642.551 1642.234 1641.806 1641.296 1640.787 1640.308 1639.849 1639.41 1638.969 1638.572 1638.377 1638.339 1638.2 1637.898 1637.569 1637.263 1636.982 1636.723 1636.5 1636.331 1636.239 1636.26 1636.353 1636.376 1636.23 1635.92 1635.552 1635.281 1635.09 1634.852 1634.555 1634.289 1633.992 1633.544 1632.939 1632.26 1631.52 1630.626 1629.485 1628.236 1626.977 1625.831 1625.055 1624.458 1623.945 1623.631 1623.511 1623.529 1623.591 1623.678 1623.8 1623.948 1624.118 1624.296 1624.469 1624.635 1624.806 1625 1625.193 1625.369 1625.532 1625.708 1625.914 1626.16 1626.441 1626.754 1627.185 1627.774 1628.518 1629.355 1630.17 1630.692 1630.73 1630.404 1629.898 1629.172 1628.302 1627.386 1626.385 1625.383 1624.564 1623.871 1623.178 1622.537 1622.054 1621.697 1621.4 1621.128 1620.765 1620.356 1620.005 1619.778 1619.742 1619.846 1619.854 1619.666 1619.369 1619.028 1618.692 1618.31 1617.796 1617.299 1616.942 1616.643 1616.336 1615.923 1615.422 1615.029 1614.767 1614.523 1614.313 1614.168 1614.065 1614.045 1613.908 1613.578 1613.199 1612.819 1612.47 1612.163 1611.825 1611.443 1611.149 1611.075 1611.164 1611.249 1611.133 1610.731 1610.098 1609.292 1608.504 1607.773 1607.086 1606.608 1606.412 1606.356 1606.307 1606.265 1606.295 1606.35 1606.192 1605.835 1605.512 1605.38 1605.443 1605.533 1605.439 1605.14 1604.7 1604.201 1603.719 1603.343 1603.199 1603.26 1603.376 1603.498 1603.597 1603.501 1603.108 1602.548 1601.98 1601.411 1600.954 1600.879 1601.153 1601.363 1601.335 1601.151 1600.871 1600.591 1600.353 1600.165 1600.017 1599.89 1599.717 1599.478 1599.272 1599.068 1598.71 1598.189 1597.685 1597.286 1596.944 1596.587 1596.237 1596.03 1596.05 1596.205 1596.311 1596.304 1596.142 1595.856 1595.576 1595.327 1595.095 1594.902 1594.765 1594.664 1594.579 1594.521 1594.454 1594.253 1593.936 1593.61 1593.385 1593.233 1593.019 1592.763 1592.511 1592.255 1592.063 1591.993 1591.986 1592.033 1592.214 1592.512 1592.856 1593.237 1593.663 1594.106 1594.505 1594.816 1595.036 1595.116 1595.032 1594.95 1595.017 1595.121 1595.122 1595.014 1594.88 1594.753 1594.559 1594.168 1593.517 1592.768 1592.101 1591.514 1590.942 1590.357 1589.844 1589.431 1589.141 1588.967 1588.81 1588.485 1588.021 1587.558 1587.197 1587.056 1587.122 1587.288 1587.471 1587.633 1587.688 1587.588 1587.325 1586.945 1586.406 1585.708 1584.942 1584.125 1583.279 1582.35 1581.278 1580.128 1578.983 1577.841 1576.684 1575.454 1574.131 1572.861 1571.645 1570.348 1569.007 1567.706 1566.399 1565.16 1564.106 1563.265 1562.758 1562.561 1562.535 1562.591 1562.863 1563.524 1564.377 1565.226 1565.827 1565.837 1565.364 1564.722 1564.15 1563.671 1563.354 1563.292 1563.155 1562.737 1562.236 1561.817 1561.528 1561.354 1561.239 1561.137 1561.088 1561.215 1561.432 1561.651 1561.913 1562.212 1562.465 1562.531
1644.874 1644.505 1644.563 1644.845 1645.099 1645.329 1645.507 1645.605 1645.567 1645.318 1644.938 1644.567 1644.335 1644.261 1644.153 1643.924 1643.683 1643.469 1643.25 1643.044 1642.93 1642.889 1642.742 1642.489 1642.182 1641.746 1641.196 1640.672 1640.187 1639.688 1639.201 1638.749 1638.365 1638.146 1638.057 1637.914 1637.62 1637.29 1636.994 1636.706 1636.397 1636.06 1635.81 1635.741 1635.788 1635.86 1635.89 1635.827 1635.646 1635.422 1635.247 1635.04 1634.691 1634.269 1633.821 1633.349 1632.777 1632.024 1631.18 1630.245 1629.085 1627.618 1626.155 1625 1624.137 1623.612 1623.26 1623.068 1623.113 1623.211 1623.311 1623.44 1623.562 1623.679 1623.827 1624.009 1624.211 1624.389 1624.566 1624.765 1624.971 1625.17 1625.348 1625.522 1625.716 1625.93 1626.236 1626.73 1627.326 1627.855 1628.41 1629.132 1629.905 1630.418 1630.442 1630.159 1629.788 1629.286 1628.459 1627.411 1626.435 1625.569 1624.703 1623.828 1623.072 1622.491 1621.977 1621.459 1620.994 1620.633 1620.354 1620.053 1619.672 1619.37 1619.254 1619.3 1619.528 1619.677 1619.538 1619.299 1619.025 1618.691 1618.24 1617.657 1617.171 1616.884 1616.651 1616.36 1615.921 1615.396 1614.928 1614.544 1614.24 1614.022 1613.872 1613.769 1613.726 1613.534 1613.164 1612.775 1612.402 1612.073 1611.82 1611.554 1611.145 1610.714 1610.527 1610.569 1610.64 1610.581 1610.277 1609.684 1608.941 1608.227 1607.5 1606.755 1606.206 1606.005 1605.963 1605.922 1605.885 1605.853 1605.794 1605.64 1605.385 1605.159 1605.079 1605.135 1605.228 1605.217 1604.998 1604.6 1604.113 1603.613 1603.183 1602.938 1602.893 1602.968 1603.121 1603.252 1603.135 1602.801 1602.38 1601.873 1601.317 1600.863 1600.741 1600.906 1600.989 1600.841 1600.612 1600.447 1600.313 1600.162 1600.008 1599.87 1599.771 1599.651 1599.441 1599.244 1599.077 1598.8 1598.352 1597.902 1597.558 1597.28 1596.974 1596.63 1596.328 1596.161 1596.151 1596.17 1596.111 1595.935 1595.696 1595.438 1595.195 1594.985 1594.792 1594.611 1594.478 1594.425 1594.405 1594.307 1594.051 1593.759 1593.519 1593.301 1593.07 1592.806 1592.516 1592.198 1591.882 1591.662 1591.574 1591.547 1591.597 1591.835 1592.21 1592.627 1593.059 1593.496 1593.909 1594.247 1594.517 1594.704 1594.714 1594.585 1594.507 1594.624 1594.739 1594.72 1594.644 1594.583 1594.555 1594.419 1594.006 1593.335 1592.582 1591.874 1591.218 1590.546 1589.827 1589.223 1588.829 1588.62 1588.511 1588.347 1587.996 1587.536 1587.062 1586.63 1586.343 1586.269 1586.381 1586.594 1586.806 1586.852 1586.722 1586.456 1586.072 1585.546 1584.886 1584.164 1583.434 1582.678 1581.813 1580.789 1579.674 1578.557 1577.447 1576.319 1575.123 1573.825 1572.535 1571.322 1570.07 1568.794 1567.515 1566.222 1565.009 1563.932 1563.02 1562.417 1562.116 1561.999 1562.043 1562.422 1563.142 1563.885 1564.605 1565.173 1565.233 1564.811 1564.17 1563.591 1563.172 1562.903 1562.765 1562.568 1562.227 1561.862 1561.635 1561.511 1561.384 1561.274 1561.244 1561.372 1561.657 1561.96 1562.16 1562.295 1562.417 1562.375 1561.996
1644.686 1644.325 1644.19 1644.226 1644.439 1644.753 1644.979 1645.108 1645.136 1644.97 1644.606 1644.296 1644.17 1644.085 1643.891 1643.591 1643.235 1642.92 1642.744 1642.652 1642.603 1642.619 1642.574 1642.391 1642.084 1641.615 1641.042 1640.492 1639.974 1639.452 1638.971 1638.58 1638.293 1638.103 1637.961 1637.754 1637.467 1637.226 1636.994 1636.693 1636.327 1635.911 1635.549 1635.365 1635.336 1635.361 1635.427 1635.527 1635.505 1635.374 1635.208 1634.888 1634.359 1633.765 1633.146 1632.501 1631.785 1630.933 1629.981 1628.872 1627.556 1626.023 1624.536 1623.616 1623.168 1622.915 1622.788 1622.798 1622.934 1623.066 1623.184 1623.314 1623.449 1623.592 1623.741 1623.915 1624.113 1624.286 1624.474 1624.72 1624.95 1625.15 1625.328 1625.533 1625.811 1626.143 1626.622 1627.334 1628.075 1628.618 1629.075 1629.582 1630.101 1630.398 1630.254 1629.91 1629.599 1629.155 1628.346 1627.252 1626.174 1625.274 1624.392 1623.479 1622.721 1622.206 1621.74 1621.181 1620.652 1620.26 1619.932 1619.564 1619.141 1618.8 1618.671 1618.755 1619.031 1619.244 1619.177 1619.02 1618.832 1618.543 1618.129 1617.61 1617.156 1616.866 1616.645 1616.375 1615.953 1615.339 1614.673 1614.221 1613.943 1613.711 1613.53 1613.406 1613.311 1613.097 1612.741 1612.362 1612.009 1611.71 1611.488 1611.21 1610.743 1610.225 1609.901 1609.845 1609.883 1609.87 1609.683 1609.154 1608.469 1607.845 1607.2 1606.475 1605.884 1605.665 1605.636 1605.604 1605.555 1605.449 1605.203 1604.942 1604.9 1604.926 1604.894 1604.863 1604.853 1604.847 1604.713 1604.373 1603.899 1603.442 1603.134 1602.965 1602.868 1602.823 1602.846 1602.846 1602.659 1602.355 1602.016 1601.63 1601.232 1600.923 1600.797 1600.798 1600.708 1600.418 1600.087 1599.957 1599.942 1599.905 1599.835 1599.727 1599.643 1599.563 1599.4 1599.233 1599.133 1598.99 1598.691 1598.334 1598.022 1597.735 1597.424 1597.07 1596.66 1596.295 1596.067 1595.882 1595.76 1595.652 1595.503 1595.324 1595.134 1594.958 1594.784 1594.564 1594.324 1594.184 1594.101 1593.933 1593.701 1593.543 1593.416 1593.199 1592.923 1592.611 1592.251 1591.854 1591.476 1591.23 1591.128 1591.144 1591.359 1591.764 1592.154 1592.506 1592.963 1593.431 1593.754 1593.989 1594.236 1594.407 1594.378 1594.245 1594.185 1594.298 1594.381 1594.346 1594.294 1594.274 1594.283 1594.123 1593.658 1593.008 1592.328 1591.67 1590.989 1590.173 1589.284 1588.605 1588.241 1588.102 1588.034 1587.875 1587.54 1587.1 1586.643 1586.185 1585.773 1585.532 1585.527 1585.68 1585.863 1585.923 1585.824 1585.58 1585.194 1584.668 1584.069 1583.45 1582.777 1582 1581.147 1580.203 1579.158 1578.07 1576.98 1575.872 1574.706 1573.469 1572.221 1570.999 1569.763 1568.53 1567.29 1566.032 1564.845 1563.777 1562.846 1562.17 1561.762 1561.561 1561.605 1562.026 1562.713 1563.355 1563.904 1564.292 1564.356 1564.057 1563.532 1563.062 1562.716 1562.437 1562.221 1562.056 1561.908 1561.75 1561.629 1561.519 1561.387 1561.358 1561.568 1561.904 1562.225 1562.443 1562.505 1562.393 1562.153 1561.771 1561.162
1644.403 1644.046 1643.744 1643.524 1643.633 1644.078 1644.498 1644.684 1644.713 1644.585 1644.282 1644.089 1644.005 1643.848 1643.565 1643.171 1642.761 1642.491 1642.417 1642.401 1642.361 1642.338 1642.29 1642.14 1641.854 1641.393 1640.828 1640.25 1639.692 1639.19 1638.805 1638.542 1638.351 1638.201 1638.034 1637.769 1637.484 1637.265 1636.992 1636.647 1636.258 1635.829 1635.371 1634.993 1634.883 1634.918 1635.08 1635.361 1635.434 1635.237 1634.863 1634.295 1633.579 1632.863 1632.184 1631.494 1630.703 1629.763 1628.723 1627.479 1626.089 1624.681 1623.464 1622.814 1622.574 1622.508 1622.563 1622.68 1622.816 1622.93 1623.066 1623.216 1623.37 1623.533 1623.682 1623.848 1624.049 1624.24 1624.433 1624.689 1624.93 1625.155 1625.449 1625.802 1626.193 1626.648 1627.247 1627.991 1628.71 1629.256 1629.608 1629.868 1630.176 1630.403 1630.345 1630.167 1629.971 1629.589 1628.852 1627.804 1626.652 1625.539 1624.507 1623.587 1622.774 1622.114 1621.532 1620.947 1620.439 1620.018 1619.58 1619.104 1618.653 1618.25 1618.011 1618.098 1618.411 1618.701 1618.786 1618.662 1618.417 1618.146 1617.866 1617.523 1617.161 1616.858 1616.614 1616.348 1615.87 1615.062 1614.277 1613.872 1613.637 1613.421 1613.27 1613.104 1612.896 1612.636 1612.313 1611.966 1611.635 1611.354 1611.091 1610.728 1610.228 1609.714 1609.314 1609.126 1609.13 1609.187 1609.053 1608.586 1607.998 1607.439 1606.864 1606.237 1605.682 1605.407 1605.346 1605.335 1605.333 1605.237 1604.844 1604.398 1604.462 1604.755 1604.824 1604.736 1604.636 1604.561 1604.424 1604.12 1603.701 1603.359 1603.153 1602.997 1602.836 1602.647 1602.476 1602.332 1602.12 1601.83 1601.491 1601.144 1600.851 1600.686 1600.613 1600.51 1600.325 1600.016 1599.637 1599.453 1599.451 1599.476 1599.48 1599.445 1599.425 1599.428 1599.366 1599.3 1599.293 1599.235 1599.002 1598.67 1598.321 1597.926 1597.487 1597.022 1596.588 1596.325 1596.119 1595.827 1595.592 1595.474 1595.378 1595.269 1595.13 1594.964 1594.763 1594.434 1594.024 1593.768 1593.619 1593.464 1593.38 1593.378 1593.306 1593.053 1592.696 1592.309 1591.894 1591.464 1591.078 1590.828 1590.735 1590.844 1591.248 1591.814 1592.306 1592.698 1593.198 1593.698 1593.944 1594.002 1594.013 1593.975 1593.879 1593.792 1593.808 1593.912 1593.972 1593.966 1593.917 1593.908 1593.956 1593.753 1593.254 1592.681 1592.109 1591.56 1590.912 1590.024 1589.048 1588.232 1587.746 1587.573 1587.516 1587.401 1587.13 1586.722 1586.28 1585.856 1585.433 1585.074 1584.873 1584.828 1584.888 1584.954 1584.923 1584.72 1584.337 1583.823 1583.274 1582.707 1582.045 1581.253 1580.44 1579.599 1578.636 1577.568 1576.478 1575.382 1574.235 1573.04 1571.857 1570.69 1569.484 1568.256 1567.012 1565.748 1564.54 1563.49 1562.639 1562.002 1561.568 1561.308 1561.297 1561.661 1562.261 1562.871 1563.316 1563.478 1563.477 1563.317 1562.972 1562.648 1562.407 1562.19 1562 1561.869 1561.786 1561.704 1561.614 1561.502 1561.458 1561.678 1562.085 1562.417 1562.622 1562.657 1562.438 1561.969 1561.388 1560.811 1560.185
1644.112 1643.752 1643.404 1643.143 1643.223 1643.632 1644.082 1644.343 1644.355 1644.185 1643.956 1643.842 1643.758 1643.54 1643.189 1642.785 1642.45 1642.268 1642.234 1642.205 1642.099 1642.01 1641.951 1641.829 1641.585 1641.164 1640.611 1640.013 1639.459 1639.05 1638.797 1638.62 1638.465 1638.345 1638.206 1637.931 1637.604 1637.317 1636.965 1636.564 1636.124 1635.578 1634.956 1634.509 1634.471 1634.572 1634.815 1635.159 1635.146 1634.742 1634.081 1633.233 1632.427 1631.721 1631.025 1630.339 1629.58 1628.61 1627.437 1626.076 1624.685 1623.516 1622.725 1622.346 1622.248 1622.31 1622.427 1622.553 1622.684 1622.81 1622.969 1623.135 1623.293 1623.461 1623.626 1623.802 1624.013 1624.232 1624.46 1624.713 1624.969 1625.328 1625.783 1626.274 1626.854 1627.468 1628.125 1628.788 1629.295 1629.635 1629.848 1630.002 1630.215 1630.417 1630.473 1630.444 1630.308 1629.967 1629.355 1628.444 1627.374 1626.219 1625.033 1623.939 1622.971 1622.122 1621.373 1620.716 1620.152 1619.639 1619.114 1618.596 1618.113 1617.624 1617.303 1617.413 1617.765 1618.111 1618.322 1618.218 1617.896 1617.624 1617.421 1617.18 1616.874 1616.579 1616.383 1616.155 1615.595 1614.693 1613.924 1613.541 1613.302 1613.094 1612.943 1612.733 1612.466 1612.22 1611.977 1611.675 1611.307 1610.975 1610.652 1610.222 1609.724 1609.25 1608.818 1608.526 1608.503 1608.594 1608.505 1608.159 1607.643 1607.078 1606.53 1605.992 1605.51 1605.246 1605.226 1605.301 1605.366 1605.319 1604.947 1604.434 1604.366 1604.64 1604.781 1604.685 1604.484 1604.291 1604.114 1603.867 1603.538 1603.251 1603.045 1602.842 1602.589 1602.29 1601.998 1601.739 1601.485 1601.204 1600.873 1600.541 1600.274 1600.143 1600.092 1599.947 1599.722 1599.488 1599.212 1599.05 1599 1598.986 1598.993 1598.989 1598.986 1599.034 1599.133 1599.221 1599.256 1599.175 1598.916 1598.526 1598.094 1597.628 1597.116 1596.67 1596.473 1596.454 1596.338 1596.069 1595.722 1595.445 1595.327 1595.253 1595.139 1594.966 1594.665 1594.173 1593.644 1593.317 1593.157 1593.118 1593.179 1593.253 1593.191 1592.895 1592.47 1592.021 1591.57 1591.13 1590.784 1590.58 1590.502 1590.668 1591.175 1591.876 1592.557 1593.085 1593.507 1593.849 1593.984 1593.865 1593.602 1593.342 1593.203 1593.19 1593.264 1593.365 1593.434 1593.49 1593.515 1593.537 1593.573 1593.379 1592.948 1592.458 1591.958 1591.48 1590.872 1589.95 1588.89 1587.986 1587.452 1587.209 1587.086 1586.961 1586.712 1586.341 1585.934 1585.568 1585.206 1584.786 1584.398 1584.144 1584.041 1584.038 1583.996 1583.79 1583.405 1582.917 1582.403 1581.84 1581.206 1580.488 1579.712 1578.895 1577.984 1576.962 1575.912 1574.85 1573.739 1572.6 1571.46 1570.303 1569.104 1567.863 1566.601 1565.36 1564.193 1563.167 1562.376 1561.797 1561.381 1561.133 1561.077 1561.296 1561.813 1562.511 1563.054 1563.15 1563.03 1562.881 1562.669 1562.445 1562.255 1562.121 1562.012 1561.892 1561.789 1561.697 1561.591 1561.508 1561.61 1561.953 1562.245 1562.412 1562.484 1562.383 1562.02 1561.392 1560.647 1559.912 1559.202
1643.823 1643.464 1643.142 1642.985 1643.141 1643.451 1643.738 1643.93 1643.969 1643.862 1643.705 1643.583 1643.419 1643.158 1642.844 1642.504 1642.184 1641.985 1641.946 1641.938 1641.85 1641.745 1641.669 1641.569 1641.358 1640.948 1640.41 1639.857 1639.397 1639.094 1638.89 1638.725 1638.604 1638.551 1638.473 1638.207 1637.798 1637.375 1636.921 1636.454 1636.023 1635.512 1634.916 1634.456 1634.325 1634.332 1634.452 1634.59 1634.338 1633.751 1632.978 1632.103 1631.352 1630.682 1629.949 1629.175 1628.345 1627.315 1626.045 1624.663 1623.475 1622.717 1622.279 1622.085 1622.092 1622.194 1622.309 1622.429 1622.563 1622.701 1622.862 1623.031 1623.199 1623.383 1623.58 1623.771 1623.967 1624.225 1624.599 1624.999 1625.347 1625.836 1626.426 1627.02 1627.71 1628.438 1629.134 1629.623 1629.757 1629.818 1629.919 1630.002 1630.138 1630.325 1630.447 1630.447 1630.324 1630.047 1629.558 1628.786 1627.783 1626.654 1625.446 1624.256 1623.174 1622.188 1621.317 1620.558 1619.882 1619.263 1618.662 1618.095 1617.576 1617.044 1616.672 1616.769 1617.14 1617.524 1617.801 1617.744 1617.404 1617.109 1616.911 1616.674 1616.36 1616.083 1615.937 1615.751 1615.216 1614.367 1613.618 1613.209 1612.958 1612.73 1612.533 1612.316 1612.075 1611.855 1611.666 1611.459 1611.153 1610.759 1610.369 1609.958 1609.52 1609.088 1608.597 1608.198 1608.136 1608.229 1608.169 1607.874 1607.36 1606.764 1606.221 1605.747 1605.341 1605.107 1605.105 1605.263 1605.415 1605.434 1605.186 1604.761 1604.493 1604.452 1604.498 1604.424 1604.201 1603.958 1603.777 1603.628 1603.39 1603.084 1602.8 1602.516 1602.198 1601.86 1601.508 1601.144 1600.803 1600.479 1600.104 1599.731 1599.473 1599.366 1599.316 1599.145 1598.904 1598.811 1598.814 1598.825 1598.748 1598.626 1598.594 1598.586 1598.503 1598.446 1598.589 1598.803 1598.861 1598.74 1598.451 1598.022 1597.556 1597.099 1596.717 1596.556 1596.627 1596.728 1596.665 1596.415 1595.964 1595.445 1595.123 1595.017 1594.953 1594.774 1594.386 1593.823 1593.252 1592.851 1592.697 1592.765 1592.906 1592.988 1592.895 1592.561 1592.135 1591.702 1591.252 1590.857 1590.594 1590.45 1590.391 1590.575 1591.126 1591.869 1592.607 1593.171 1593.462 1593.605 1593.608 1593.375 1592.982 1592.64 1592.528 1592.571 1592.649 1592.744 1592.839 1592.921 1592.992 1593.056 1593.089 1592.964 1592.639 1592.219 1591.765 1591.289 1590.648 1589.671 1588.586 1587.757 1587.294 1587.008 1586.795 1586.553 1586.142 1585.741 1585.43 1585.172 1584.898 1584.47 1583.971 1583.562 1583.308 1583.198 1583.105 1582.849 1582.426 1581.94 1581.45 1580.906 1580.326 1579.71 1578.953 1578.112 1577.247 1576.288 1575.286 1574.257 1573.169 1572.073 1570.957 1569.782 1568.569 1567.352 1566.154 1565.008 1563.896 1562.869 1562.094 1561.562 1561.186 1560.99 1560.948 1561.087 1561.561 1562.307 1562.913 1563.049 1562.897 1562.724 1562.586 1562.436 1562.27 1562.149 1562.049 1561.926 1561.813 1561.708 1561.617 1561.624 1561.783 1562.009 1562.05 1562.016 1561.954 1561.789 1561.459 1560.888 1560.124 1559.276 1558.413
1643.533 1643.174 1642.88 1642.77 1642.905 1643.103 1643.234 1643.368 1643.517 1643.573 1643.496 1643.337 1643.102 1642.841 1642.543 1642.146 1641.787 1641.598 1641.566 1641.579 1641.533 1641.448 1641.368 1641.284 1641.089 1640.676 1640.2 1639.769 1639.409 1639.166 1638.987 1638.841 1638.772 1638.761 1638.696 1638.418 1637.913 1637.318 1636.702 1636.178 1635.854 1635.519 1635.048 1634.589 1634.3 1634.158 1634.064 1633.854 1633.391 1632.746 1631.993 1631.187 1630.447 1629.759 1628.961 1627.976 1626.912 1625.804 1624.577 1623.364 1622.543 1622.163 1621.95 1621.889 1621.952 1622.055 1622.176 1622.303 1622.438 1622.585 1622.748 1622.932 1623.125 1623.329 1623.552 1623.804 1624.097 1624.482 1624.964 1625.508 1626.126 1626.828 1627.494 1628.087 1628.72 1629.389 1629.944 1630.183 1630.083 1629.985 1629.957 1629.923 1629.981 1630.126 1630.215 1630.179 1630.088 1629.898 1629.496 1628.82 1627.833 1626.692 1625.527 1624.368 1623.25 1622.206 1621.275 1620.442 1619.706 1619.046 1618.404 1617.775 1617.15 1616.531 1616.178 1616.321 1616.712 1617.111 1617.413 1617.377 1616.987 1616.612 1616.381 1616.148 1615.865 1615.622 1615.449 1615.199 1614.676 1613.916 1613.271 1612.893 1612.606 1612.324 1612.073 1611.849 1611.642 1611.451 1611.294 1611.172 1611.017 1610.722 1610.343 1609.944 1609.508 1609.105 1608.681 1608.276 1608.094 1608.05 1607.947 1607.645 1607.122 1606.538 1606.039 1605.653 1605.328 1605.067 1604.957 1605.059 1605.28 1605.414 1605.3 1605.004 1604.641 1604.338 1604.189 1604.05 1603.883 1603.706 1603.544 1603.423 1603.215 1602.914 1602.601 1602.28 1601.93 1601.518 1601.053 1600.586 1600.157 1599.752 1599.321 1598.902 1598.607 1598.499 1598.454 1598.328 1598.259 1598.387 1598.613 1598.76 1598.675 1598.452 1598.333 1598.29 1598.117 1597.84 1597.756 1597.955 1598.112 1598.078 1597.859 1597.478 1597.058 1596.651 1596.395 1596.461 1596.706 1596.924 1596.982 1596.756 1596.224 1595.546 1594.96 1594.643 1594.522 1594.307 1593.873 1593.326 1592.786 1592.387 1592.231 1592.302 1592.447 1592.513 1592.4 1592.068 1591.68 1591.316 1590.944 1590.635 1590.446 1590.335 1590.274 1590.369 1590.732 1591.29 1591.921 1592.521 1592.887 1592.982 1592.891 1592.668 1592.384 1592.113 1592.045 1592.124 1592.209 1592.292 1592.365 1592.397 1592.419 1592.467 1592.481 1592.392 1592.19 1591.865 1591.419 1590.893 1590.211 1589.237 1588.234 1587.566 1587.184 1586.881 1586.586 1586.205 1585.642 1585.125 1584.822 1584.63 1584.364 1583.932 1583.454 1583.035 1582.687 1582.432 1582.251 1581.963 1581.522 1581.039 1580.55 1579.995 1579.392 1578.782 1578.078 1577.298 1576.491 1575.558 1574.589 1573.605 1572.527 1571.449 1570.378 1569.26 1568.073 1566.881 1565.757 1564.675 1563.584 1562.604 1561.875 1561.366 1561.057 1560.955 1560.956 1561.075 1561.523 1562.231 1562.752 1562.906 1562.805 1562.646 1562.546 1562.447 1562.312 1562.181 1562.061 1561.929 1561.8 1561.695 1561.684 1561.8 1561.925 1561.928 1561.762 1561.582 1561.391 1561.151 1560.837 1560.35 1559.643 1558.798 1557.914
1643.266 1642.953 1642.689 1642.519 1642.481 1642.517 1642.606 1642.846 1643.175 1643.381 1643.377 1643.203 1642.961 1642.715 1642.374 1641.875 1641.449 1641.235 1641.184 1641.178 1641.117 1641.051 1641.031 1640.968 1640.759 1640.376 1639.996 1639.691 1639.396 1639.162 1638.979 1638.842 1638.797 1638.753 1638.627 1638.34 1637.778 1637.001 1636.262 1635.805 1635.624 1635.429 1635.037 1634.575 1634.213 1633.951 1633.638 1633.153 1632.525 1631.823 1631.087 1630.312 1629.533 1628.843 1628.038 1626.884 1625.578 1624.348 1623.227 1622.348 1621.851 1621.693 1621.656 1621.696 1621.801 1621.914 1622.026 1622.141 1622.275 1622.443 1622.644 1622.879 1623.138 1623.386 1623.636 1624.037 1624.564 1625.151 1625.803 1626.502 1627.297 1628.111 1628.781 1629.273 1629.627 1629.876 1630.105 1630.247 1630.226 1630.12 1629.974 1629.861 1629.833 1629.859 1629.851 1629.786 1629.705 1629.527 1629.169 1628.563 1627.642 1626.563 1625.451 1624.297 1623.167 1622.123 1621.164 1620.298 1619.565 1618.911 1618.262 1617.612 1616.901 1616.174 1615.849 1616.061 1616.464 1616.864 1617.179 1617.147 1616.672 1616.148 1615.849 1615.638 1615.404 1615.152 1614.902 1614.601 1614.085 1613.373 1612.816 1612.469 1612.15 1611.839 1611.574 1611.364 1611.187 1611.035 1610.935 1610.901 1610.885 1610.752 1610.42 1609.982 1609.504 1609.087 1608.744 1608.41 1608.139 1607.923 1607.674 1607.325 1606.874 1606.379 1605.979 1605.683 1605.403 1605.123 1604.917 1604.83 1604.896 1605.082 1605.202 1605.12 1604.804 1604.363 1603.924 1603.571 1603.441 1603.406 1603.336 1603.252 1603.086 1602.801 1602.486 1602.136 1601.69 1601.164 1600.606 1600.075 1599.598 1599.156 1598.72 1598.302 1597.968 1597.786 1597.741 1597.793 1597.947 1598.156 1598.372 1598.541 1598.53 1598.346 1598.172 1598.035 1597.753 1597.311 1597.037 1597.145 1597.296 1597.307 1597.208 1596.934 1596.601 1596.275 1596.05 1596.147 1596.432 1596.718 1596.927 1596.84 1596.382 1595.713 1595.015 1594.447 1594.074 1593.716 1593.253 1592.77 1592.338 1592.027 1591.857 1591.841 1591.916 1591.94 1591.826 1591.536 1591.206 1590.943 1590.692 1590.458 1590.313 1590.231 1590.179 1590.192 1590.311 1590.578 1591.026 1591.566 1592.016 1592.244 1592.208 1592.017 1591.838 1591.726 1591.748 1591.839 1591.913 1591.963 1591.978 1591.949 1591.916 1591.944 1591.953 1591.841 1591.643 1591.328 1590.877 1590.35 1589.7 1588.809 1587.936 1587.404 1587.065 1586.71 1586.313 1585.843 1585.293 1584.757 1584.312 1583.935 1583.601 1583.246 1582.857 1582.494 1582.142 1581.776 1581.457 1581.109 1580.679 1580.209 1579.711 1579.13 1578.497 1577.864 1577.195 1576.479 1575.696 1574.771 1573.829 1572.891 1571.844 1570.792 1569.795 1568.762 1567.62 1566.435 1565.303 1564.226 1563.191 1562.314 1561.69 1561.264 1561.033 1560.99 1561.034 1561.196 1561.639 1562.186 1562.538 1562.7 1562.689 1562.594 1562.52 1562.433 1562.308 1562.173 1562.045 1561.884 1561.716 1561.625 1561.645 1561.701 1561.758 1561.695 1561.469 1561.221 1560.966 1560.617 1560.194 1559.744 1559.165 1558.401 1557.583
1643.096 1642.842 1642.602 1642.377 1642.174 1642.049 1642.146 1642.516 1642.944 1643.215 1643.288 1643.153 1642.919 1642.654 1642.258 1641.726 1641.274 1640.986 1640.805 1640.677 1640.61 1640.658 1640.754 1640.724 1640.513 1640.173 1639.848 1639.589 1639.371 1639.169 1638.968 1638.757 1638.547 1638.417 1638.277 1637.981 1637.396 1636.522 1635.748 1635.425 1635.351 1635.228 1634.929 1634.489 1634.015 1633.537 1633.019 1632.388 1631.656 1630.893 1630.137 1629.358 1628.524 1627.801 1627.071 1625.919 1624.49 1623.201 1622.245 1621.617 1621.362 1621.38 1621.438 1621.506 1621.616 1621.739 1621.845 1621.934 1622.07 1622.308 1622.627 1622.964 1623.287 1623.623 1623.98 1624.584 1625.455 1626.323 1627.116 1627.884 1628.636 1629.27 1629.658 1629.745 1629.691 1629.666 1629.801 1630.003 1630.12 1630.092 1629.955 1629.828 1629.74 1629.669 1629.577 1629.443 1629.296 1629.066 1628.696 1628.131 1627.279 1626.26 1625.18 1624.029 1622.874 1621.819 1620.915 1620.134 1619.473 1618.872 1618.275 1617.681 1616.969 1616.135 1615.706 1615.871 1616.232 1616.585 1616.856 1616.792 1616.317 1615.803 1615.473 1615.235 1615.014 1614.75 1614.467 1614.195 1613.727 1613.005 1612.415 1611.991 1611.619 1611.306 1611.06 1610.903 1610.784 1610.711 1610.703 1610.736 1610.78 1610.739 1610.469 1610.017 1609.503 1609.036 1608.692 1608.374 1608.024 1607.716 1607.35 1606.924 1606.615 1606.281 1605.942 1605.682 1605.44 1605.19 1604.972 1604.725 1604.54 1604.673 1604.966 1605.098 1604.954 1604.529 1603.951 1603.446 1603.197 1603.144 1603.121 1603.074 1602.973 1602.726 1602.339 1601.862 1601.316 1600.739 1600.159 1599.602 1599.101 1598.653 1598.234 1597.839 1597.5 1597.288 1597.309 1597.521 1597.748 1597.876 1597.967 1598.112 1598.18 1598.101 1597.947 1597.745 1597.379 1596.874 1596.596 1596.691 1596.775 1596.722 1596.629 1596.441 1596.179 1595.897 1595.684 1595.729 1595.955 1596.229 1596.521 1596.609 1596.322 1595.749 1595.064 1594.403 1593.895 1593.53 1593.174 1592.764 1592.302 1591.913 1591.635 1591.481 1591.426 1591.326 1591.185 1590.992 1590.778 1590.641 1590.507 1590.329 1590.206 1590.147 1590.124 1590.129 1590.152 1590.228 1590.441 1590.809 1591.249 1591.597 1591.678 1591.528 1591.362 1591.352 1591.48 1591.594 1591.657 1591.675 1591.597 1591.479 1591.417 1591.45 1591.436 1591.285 1591.046 1590.685 1590.21 1589.668 1589.053 1588.364 1587.696 1587.204 1586.808 1586.381 1585.917 1585.415 1584.899 1584.394 1583.901 1583.4 1582.94 1582.569 1582.251 1581.962 1581.644 1581.227 1580.758 1580.277 1579.836 1579.389 1578.869 1578.278 1577.669 1577.064 1576.418 1575.707 1574.906 1573.98 1573.057 1572.159 1571.18 1570.179 1569.217 1568.215 1567.122 1565.968 1564.815 1563.727 1562.765 1562.003 1561.502 1561.226 1561.072 1561.024 1561.114 1561.457 1562.008 1562.415 1562.596 1562.689 1562.694 1562.629 1562.548 1562.441 1562.306 1562.161 1561.991 1561.778 1561.598 1561.53 1561.491 1561.379 1561.311 1561.256 1561.071 1560.798 1560.49 1560.048 1559.542 1559.154 1558.77 1558.169 1557.444
1642.926 1642.754 1642.523 1642.25 1641.965 1641.736 1641.755 1642.118 1642.592 1642.936 1643.102 1643.074 1642.876 1642.561 1642.116 1641.594 1641.142 1640.737 1640.339 1640.13 1640.176 1640.354 1640.514 1640.523 1640.356 1640.063 1639.752 1639.517 1639.373 1639.221 1639.034 1638.752 1638.329 1637.999 1637.808 1637.493 1636.849 1635.876 1635.03 1634.772 1634.833 1634.819 1634.571 1634.141 1633.63 1633.018 1632.319 1631.573 1630.801 1630.004 1629.18 1628.352 1627.503 1626.661 1625.795 1624.685 1623.415 1622.308 1621.599 1621.213 1621.11 1621.186 1621.264 1621.329 1621.423 1621.542 1621.647 1621.757 1621.985 1622.332 1622.728 1623.123 1623.523 1624.02 1624.615 1625.393 1626.502 1627.616 1628.488 1629.213 1629.65 1629.638 1629.401 1629.139 1628.996 1629.125 1629.406 1629.671 1629.852 1629.871 1629.762 1629.625 1629.485 1629.34 1629.215 1629.104 1628.903 1628.594 1628.201 1627.651 1626.85 1625.856 1624.765 1623.623 1622.462 1621.37 1620.496 1619.825 1619.266 1618.745 1618.234 1617.736 1617.142 1616.337 1615.72 1615.705 1615.981 1616.253 1616.396 1616.167 1615.677 1615.245 1614.937 1614.722 1614.602 1614.422 1614.168 1613.962 1613.604 1612.925 1612.233 1611.657 1611.238 1610.954 1610.68 1610.527 1610.502 1610.521 1610.568 1610.62 1610.67 1610.677 1610.491 1610.054 1609.513 1609.015 1608.631 1608.259 1607.824 1607.457 1607.091 1606.678 1606.378 1606.125 1605.864 1605.641 1605.441 1605.245 1605.003 1604.607 1604.254 1604.273 1604.593 1604.882 1604.956 1604.718 1604.226 1603.708 1603.308 1603.068 1602.971 1602.914 1602.823 1602.615 1602.206 1601.623 1600.98 1600.342 1599.727 1599.156 1598.663 1598.235 1597.799 1597.399 1597.089 1596.929 1597.044 1597.324 1597.527 1597.561 1597.56 1597.652 1597.712 1597.658 1597.527 1597.342 1597.058 1596.671 1596.405 1596.401 1596.417 1596.335 1596.225 1596.097 1595.92 1595.628 1595.295 1595.191 1595.357 1595.636 1595.927 1596.107 1596.035 1595.66 1595.075 1594.493 1594.045 1593.772 1593.557 1593.181 1592.592 1591.992 1591.541 1591.295 1591.121 1590.855 1590.606 1590.484 1590.424 1590.387 1590.335 1590.229 1590.13 1590.084 1590.084 1590.097 1590.107 1590.124 1590.18 1590.34 1590.642 1590.984 1591.136 1591.065 1590.962 1590.981 1591.122 1591.311 1591.428 1591.412 1591.234 1591.032 1590.935 1590.945 1590.875 1590.677 1590.424 1590.057 1589.552 1588.951 1588.315 1587.768 1587.31 1586.867 1586.419 1585.958 1585.464 1584.95 1584.446 1583.959 1583.493 1583.022 1582.532 1582.079 1581.739 1581.484 1581.172 1580.727 1580.193 1579.597 1579.023 1578.537 1578.023 1577.443 1576.869 1576.309 1575.714 1575.016 1574.159 1573.241 1572.348 1571.437 1570.492 1569.547 1568.623 1567.676 1566.61 1565.474 1564.344 1563.276 1562.4 1561.765 1561.37 1561.194 1561.103 1561.123 1561.439 1562.046 1562.592 1562.803 1562.821 1562.801 1562.75 1562.667 1562.571 1562.457 1562.315 1562.137 1561.899 1561.651 1561.512 1561.458 1561.315 1561.071 1560.857 1560.679 1560.431 1560.1 1559.738 1559.295 1558.837 1558.585 1558.395 1557.978 1557.399
1642.67 1642.507 1642.261 1641.945 1641.609 1641.311 1641.242 1641.535 1642.021 1642.475 1642.791 1642.898 1642.789 1642.47 1641.993 1641.479 1640.962 1640.377 1639.869 1639.697 1639.811 1639.998 1640.151 1640.216 1640.167 1639.982 1639.72 1639.516 1639.398 1639.298 1639.142 1638.807 1638.243 1637.699 1637.368 1636.995 1636.268 1635.235 1634.378 1634.148 1634.303 1634.413 1634.24 1633.82 1633.302 1632.586 1631.667 1630.768 1629.947 1629.107 1628.212 1627.313 1626.43 1625.501 1624.503 1623.446 1622.398 1621.519 1621.068 1620.938 1620.939 1621.005 1621.076 1621.14 1621.218 1621.318 1621.454 1621.666 1622.039 1622.482 1622.899 1623.355 1623.983 1624.797 1625.715 1626.744 1627.769 1628.66 1629.362 1629.841 1629.832 1629.301 1628.638 1628.21 1628.171 1628.528 1628.999 1629.336 1629.488 1629.389 1629.198 1629.024 1628.842 1628.647 1628.5 1628.45 1628.308 1628.029 1627.668 1627.143 1626.359 1625.327 1624.159 1622.985 1621.84 1620.788 1619.997 1619.433 1618.951 1618.489 1618.034 1617.587 1617.124 1616.524 1615.883 1615.701 1615.891 1616.028 1615.859 1615.397 1614.901 1614.5 1614.179 1613.993 1614.024 1614.044 1613.886 1613.734 1613.477 1612.892 1612.199 1611.594 1611.197 1610.913 1610.54 1610.311 1610.331 1610.407 1610.458 1610.501 1610.499 1610.392 1610.127 1609.649 1609.068 1608.553 1608.235 1607.986 1607.59 1607.149 1606.749 1606.355 1606.018 1605.788 1605.633 1605.482 1605.301 1605.111 1604.828 1604.371 1603.981 1603.911 1604.23 1604.693 1604.953 1604.864 1604.481 1603.967 1603.462 1603.073 1602.87 1602.769 1602.646 1602.443 1602.101 1601.573 1600.941 1600.273 1599.618 1599.059 1598.63 1598.196 1597.668 1597.18 1596.841 1596.678 1596.778 1597.052 1597.228 1597.227 1597.184 1597.189 1597.186 1597.127 1597.021 1596.872 1596.675 1596.42 1596.186 1596.083 1596.062 1596.052 1596.014 1595.921 1595.755 1595.41 1594.943 1594.667 1594.768 1595.076 1595.372 1595.583 1595.656 1595.475 1595.001 1594.44 1593.979 1593.765 1593.718 1593.433 1592.787 1592.08 1591.523 1591.167 1590.832 1590.427 1590.098 1590.023 1590.084 1590.096 1590.063 1590.003 1589.953 1589.952 1589.983 1590.016 1590.048 1590.079 1590.105 1590.146 1590.251 1590.423 1590.563 1590.598 1590.609 1590.643 1590.728 1590.955 1591.111 1591.054 1590.876 1590.702 1590.561 1590.468 1590.313 1590.05 1589.747 1589.375 1588.896 1588.326 1587.699 1587.169 1586.808 1586.437 1585.995 1585.522 1585.006 1584.488 1583.999 1583.54 1583.113 1582.704 1582.25 1581.732 1581.297 1580.994 1580.658 1580.192 1579.652 1579.04 1578.374 1577.787 1577.243 1576.661 1576.083 1575.519 1574.919 1574.23 1573.376 1572.488 1571.609 1570.673 1569.748 1568.865 1567.984 1567.064 1566.015 1564.901 1563.816 1562.814 1562.045 1561.591 1561.391 1561.311 1561.302 1561.546 1562.127 1562.696 1562.977 1563.005 1562.947 1562.866 1562.762 1562.653 1562.541 1562.435 1562.286 1562.024 1561.695 1561.418 1561.235 1561.079 1560.827 1560.518 1560.232 1559.96 1559.644 1559.265 1558.874 1558.481 1558.161 1558.059 1557.977 1557.643 1557.187
1642.41 1642.186 1641.881 1641.534 1641.178 1640.85 1640.72 1640.939 1641.411 1641.941 1642.376 1642.604 1642.583 1642.301 1641.822 1641.261 1640.662 1640.041 1639.556 1639.353 1639.406 1639.551 1639.7 1639.847 1639.912 1639.846 1639.69 1639.512 1639.36 1639.273 1639.142 1638.773 1638.174 1637.513 1636.983 1636.519 1635.766 1634.758 1633.933 1633.682 1633.842 1634.045 1634.061 1633.743 1633.122 1632.183 1631.048 1629.978 1629.059 1628.173 1627.24 1626.274 1625.299 1624.291 1623.238 1622.237 1621.401 1620.873 1620.717 1620.726 1620.753 1620.793 1620.858 1620.928 1620.995 1621.126 1621.36 1621.72 1622.207 1622.791 1623.506 1624.274 1625.083 1626.023 1627.083 1628.138 1628.822 1629.199 1629.573 1629.75 1629.423 1628.759 1628.004 1627.42 1627.363 1627.863 1628.511 1628.973 1629.128 1628.872 1628.46 1628.183 1627.981 1627.765 1627.591 1627.519 1627.412 1627.155 1626.744 1626.187 1625.448 1624.464 1623.311 1622.166 1621.099 1620.209 1619.595 1619.118 1618.638 1618.195 1617.779 1617.34 1616.911 1616.516 1616.099 1615.843 1615.835 1615.679 1615.22 1614.699 1614.249 1613.813 1613.403 1613.192 1613.311 1613.493 1613.473 1613.416 1613.274 1612.841 1612.236 1611.679 1611.319 1610.999 1610.574 1610.256 1610.224 1610.287 1610.255 1610.155 1609.984 1609.706 1609.311 1608.781 1608.181 1607.685 1607.485 1607.439 1607.214 1606.755 1606.294 1605.902 1605.562 1605.342 1605.244 1605.16 1604.99 1604.778 1604.486 1604.001 1603.542 1603.495 1603.973 1604.581 1604.923 1604.91 1604.594 1604.056 1603.461 1602.994 1602.732 1602.574 1602.381 1602.132 1601.842 1601.461 1600.929 1600.31 1599.712 1599.231 1598.841 1598.338 1597.723 1597.158 1596.736 1596.495 1596.503 1596.687 1596.807 1596.803 1596.754 1596.714 1596.68 1596.623 1596.531 1596.41 1596.272 1596.091 1595.889 1595.737 1595.659 1595.668 1595.707 1595.644 1595.407 1595.018 1594.571 1594.229 1594.194 1594.442 1594.798 1595.118 1595.264 1595.137 1594.704 1594.129 1593.641 1593.464 1593.544 1593.406 1592.853 1592.176 1591.542 1590.975 1590.441 1589.945 1589.595 1589.529 1589.642 1589.696 1589.661 1589.594 1589.553 1589.571 1589.626 1589.69 1589.753 1589.81 1589.862 1589.913 1589.964 1590.035 1590.132 1590.2 1590.219 1590.241 1590.362 1590.618 1590.759 1590.689 1590.548 1590.393 1590.21 1590.011 1589.743 1589.393 1589.016 1588.648 1588.242 1587.753 1587.2 1586.674 1586.297 1585.963 1585.552 1585.07 1584.545 1584.045 1583.601 1583.192 1582.809 1582.436 1581.999 1581.425 1580.855 1580.437 1580.062 1579.595 1579.048 1578.439 1577.772 1577.103 1576.468 1575.867 1575.286 1574.68 1574.007 1573.335 1572.582 1571.717 1570.798 1569.86 1568.967 1568.122 1567.256 1566.321 1565.328 1564.3 1563.275 1562.388 1561.814 1561.634 1561.624 1561.618 1561.718 1562.087 1562.654 1563.032 1563.104 1563.049 1562.971 1562.865 1562.739 1562.606 1562.45 1562.28 1562.068 1561.736 1561.324 1560.953 1560.644 1560.371 1560.047 1559.647 1559.266 1559.008 1558.779 1558.447 1558.09 1557.78 1557.591 1557.579 1557.536 1557.228 1556.792
1642.149 1641.881 1641.484 1641.112 1640.788 1640.48 1640.3 1640.434 1640.9 1641.432 1641.87 1642.197 1642.24 1641.969 1641.469 1640.864 1640.266 1639.727 1639.283 1638.99 1638.918 1639.036 1639.276 1639.491 1639.567 1639.564 1639.539 1639.424 1639.245 1639.12 1638.925 1638.495 1637.919 1637.223 1636.515 1636.022 1635.334 1634.365 1633.561 1633.275 1633.394 1633.622 1633.789 1633.548 1632.684 1631.529 1630.327 1629.182 1628.196 1627.256 1626.266 1625.249 1624.221 1623.182 1622.162 1621.276 1620.689 1620.494 1620.508 1620.534 1620.551 1620.57 1620.621 1620.72 1620.863 1621.079 1621.45 1622.08 1622.946 1623.924 1624.874 1625.627 1626.295 1627.077 1627.927 1628.738 1629.305 1629.471 1629.564 1629.495 1629.018 1628.334 1627.569 1626.873 1626.678 1627.171 1627.922 1628.519 1628.706 1628.362 1627.793 1627.356 1627.087 1626.86 1626.658 1626.509 1626.302 1625.954 1625.466 1624.868 1624.153 1623.294 1622.335 1621.352 1620.452 1619.79 1619.329 1618.895 1618.393 1617.871 1617.439 1617.045 1616.628 1616.299 1616.065 1615.828 1615.587 1615.192 1614.656 1614.158 1613.715 1613.246 1612.752 1612.446 1612.545 1612.796 1612.898 1612.921 1612.868 1612.655 1612.249 1611.758 1611.385 1611.03 1610.596 1610.196 1610.001 1609.934 1609.807 1609.563 1609.2 1608.762 1608.279 1607.743 1607.187 1606.77 1606.692 1606.796 1606.7 1606.295 1605.848 1605.479 1605.16 1604.91 1604.761 1604.688 1604.545 1604.341 1604.106 1603.735 1603.308 1603.275 1603.846 1604.507 1604.842 1604.88 1604.661 1604.183 1603.544 1602.929 1602.522 1602.272 1602.01 1601.709 1601.457 1601.219 1600.8 1600.301 1599.873 1599.437 1598.968 1598.403 1597.769 1597.185 1596.696 1596.335 1596.192 1596.245 1596.301 1596.271 1596.229 1596.217 1596.201 1596.146 1596.051 1595.951 1595.87 1595.773 1595.63 1595.482 1595.335 1595.216 1595.177 1595.084 1594.828 1594.451 1594.04 1593.671 1593.519 1593.682 1594.073 1594.583 1594.89 1594.74 1594.271 1593.716 1593.25 1593.048 1593.113 1593.105 1592.731 1592.128 1591.498 1590.859 1590.203 1589.586 1589.133 1588.996 1589.092 1589.168 1589.173 1589.131 1589.102 1589.138 1589.208 1589.287 1589.365 1589.439 1589.513 1589.586 1589.661 1589.738 1589.822 1589.897 1589.931 1590.009 1590.209 1590.422 1590.486 1590.418 1590.284 1590.092 1589.833 1589.516 1589.159 1588.776 1588.383 1588.019 1587.641 1587.193 1586.705 1586.217 1585.803 1585.458 1585.057 1584.576 1584.101 1583.667 1583.269 1582.891 1582.522 1582.146 1581.705 1581.101 1580.439 1579.887 1579.412 1578.902 1578.346 1577.748 1577.068 1576.341 1575.618 1574.951 1574.377 1573.783 1573.085 1572.453 1571.796 1570.93 1569.93 1569.002 1568.151 1567.292 1566.426 1565.502 1564.541 1563.614 1562.805 1562.219 1561.909 1561.96 1562.177 1562.364 1562.58 1562.843 1563.073 1563.183 1563.154 1563.066 1562.961 1562.834 1562.687 1562.478 1562.183 1561.866 1561.542 1561.152 1560.716 1560.311 1559.948 1559.584 1559.127 1558.557 1558.039 1557.838 1557.906 1557.841 1557.583 1557.318 1557.17 1557.153 1557.126 1556.92 1556.579
1641.885 1641.624 1641.154 1640.708 1640.381 1640.082 1639.834 1639.89 1640.282 1640.722 1641.196 1641.658 1641.792 1641.534 1640.987 1640.27 1639.602 1639.172 1638.849 1638.574 1638.441 1638.538 1638.827 1639.083 1639.177 1639.193 1639.226 1639.155 1638.994 1638.849 1638.571 1638.078 1637.535 1636.913 1636.173 1635.575 1634.87 1633.973 1633.256 1632.961 1632.979 1633.163 1633.287 1632.854 1631.794 1630.616 1629.482 1628.38 1627.397 1626.436 1625.383 1624.28 1623.215 1622.222 1621.336 1620.651 1620.322 1620.284 1620.302 1620.297 1620.29 1620.297 1620.351 1620.482 1620.745 1621.162 1621.825 1622.844 1624.129 1625.383 1626.231 1626.714 1627.169 1627.714 1628.211 1628.698 1629.244 1629.53 1629.521 1629.255 1628.701 1627.978 1627.189 1626.425 1626.045 1626.405 1627.131 1627.743 1627.914 1627.573 1627.041 1626.563 1626.247 1626.038 1625.775 1625.432 1625.034 1624.582 1624.089 1623.501 1622.801 1622.071 1621.344 1620.544 1619.778 1619.321 1619.037 1618.689 1618.216 1617.677 1617.264 1616.889 1616.416 1616.021 1615.824 1615.619 1615.236 1614.734 1614.208 1613.701 1613.226 1612.737 1612.215 1611.871 1611.907 1612.121 1612.276 1612.329 1612.3 1612.216 1612.049 1611.744 1611.327 1610.842 1610.35 1609.939 1609.644 1609.433 1609.253 1608.999 1608.575 1608.027 1607.458 1606.911 1606.388 1606.065 1606.121 1606.286 1606.174 1605.814 1605.447 1605.149 1604.891 1604.614 1604.359 1604.222 1604.075 1603.878 1603.683 1603.449 1603.209 1603.269 1603.784 1604.372 1604.726 1604.852 1604.741 1604.357 1603.722 1602.98 1602.355 1601.921 1601.557 1601.213 1601.018 1600.93 1600.759 1600.463 1600.068 1599.566 1599.015 1598.426 1597.794 1597.166 1596.587 1596.132 1595.88 1595.837 1595.832 1595.774 1595.736 1595.736 1595.717 1595.631 1595.511 1595.391 1595.26 1595.197 1595.177 1595.108 1594.924 1594.675 1594.496 1594.339 1594.115 1593.796 1593.398 1592.997 1592.781 1592.896 1593.288 1593.945 1594.517 1594.557 1594.162 1593.577 1592.893 1592.414 1592.397 1592.554 1592.412 1591.954 1591.388 1590.787 1590.144 1589.458 1588.832 1588.494 1588.466 1588.546 1588.653 1588.689 1588.698 1588.758 1588.837 1588.924 1589.016 1589.112 1589.207 1589.297 1589.394 1589.48 1589.535 1589.605 1589.731 1589.919 1590.15 1590.299 1590.3 1590.213 1590.048 1589.787 1589.439 1588.985 1588.501 1588.122 1587.808 1587.469 1587.081 1586.646 1586.191 1585.727 1585.278 1584.871 1584.447 1583.973 1583.57 1583.242 1582.887 1582.506 1582.12 1581.731 1581.287 1580.68 1579.997 1579.36 1578.736 1578.173 1577.63 1577.032 1576.326 1575.554 1574.783 1574.049 1573.415 1572.774 1572.075 1571.492 1570.887 1570.032 1569.065 1568.156 1567.283 1566.388 1565.527 1564.678 1563.807 1562.985 1562.377 1562.15 1562.205 1562.476 1562.859 1563.147 1563.3 1563.34 1563.305 1563.25 1563.178 1563.078 1562.942 1562.724 1562.377 1561.949 1561.509 1561.117 1560.759 1560.371 1559.939 1559.521 1559.139 1558.702 1558.105 1557.425 1556.91 1556.83 1557.07 1557.223 1557.151 1556.976 1556.856 1556.816 1556.778 1556.663 1556.463
1641.531 1641.307 1640.886 1640.408 1640.034 1639.72 1639.405 1639.307 1639.522 1639.939 1640.531 1641.108 1641.346 1641.117 1640.487 1639.701 1639.052 1638.637 1638.288 1638.001 1637.886 1638 1638.276 1638.56 1638.755 1638.837 1638.837 1638.749 1638.604 1638.436 1638.148 1637.671 1637.142 1636.639 1636.009 1635.3 1634.518 1633.709 1633.11 1632.801 1632.678 1632.648 1632.466 1631.865 1630.887 1629.807 1628.732 1627.659 1626.647 1625.677 1624.589 1623.372 1622.284 1621.447 1620.774 1620.271 1620.093 1620.101 1620.084 1620.06 1620.039 1620.049 1620.134 1620.32 1620.71 1621.35 1622.343 1623.699 1625.139 1626.275 1626.902 1627.273 1627.662 1628.109 1628.483 1628.738 1629.021 1629.321 1629.349 1628.997 1628.406 1627.676 1626.867 1626.002 1625.371 1625.414 1625.95 1626.492 1626.659 1626.36 1625.949 1625.697 1625.55 1625.324 1624.893 1624.359 1623.813 1623.246 1622.741 1622.196 1621.516 1620.879 1620.322 1619.714 1619.109 1618.746 1618.54 1618.3 1617.992 1617.644 1617.292 1616.839 1616.299 1615.847 1615.577 1615.315 1614.871 1614.325 1613.789 1613.272 1612.777 1612.235 1611.659 1611.379 1611.438 1611.559 1611.652 1611.723 1611.733 1611.679 1611.584 1611.371 1610.949 1610.417 1609.958 1609.61 1609.31 1609.047 1608.804 1608.495 1608.038 1607.464 1606.883 1606.358 1605.884 1605.619 1605.74 1605.905 1605.715 1605.354 1605.045 1604.813 1604.638 1604.393 1604.063 1603.823 1603.625 1603.418 1603.224 1603.031 1602.921 1603.084 1603.534 1604.081 1604.553 1604.756 1604.667 1604.372 1603.854 1603.156 1602.405 1601.667 1601.052 1600.706 1600.63 1600.684 1600.702 1600.508 1600.107 1599.57 1598.986 1598.398 1597.749 1597.025 1596.354 1595.871 1595.583 1595.48 1595.434 1595.355 1595.272 1595.196 1595.111 1595.007 1594.918 1594.788 1594.545 1594.385 1594.405 1594.414 1594.243 1593.973 1593.757 1593.563 1593.337 1593.052 1592.708 1592.31 1592.036 1592.129 1592.562 1593.318 1594.093 1594.413 1594.229 1593.662 1592.808 1592.033 1591.773 1591.929 1591.943 1591.682 1591.274 1590.732 1590.136 1589.523 1588.894 1588.431 1588.279 1588.278 1588.314 1588.34 1588.369 1588.443 1588.539 1588.638 1588.742 1588.85 1588.958 1589.064 1589.169 1589.257 1589.271 1589.282 1589.462 1589.748 1590.018 1590.161 1590.14 1590.008 1589.755 1589.429 1589.076 1588.609 1588.093 1587.666 1587.302 1586.936 1586.537 1586.116 1585.671 1585.173 1584.677 1584.245 1583.792 1583.318 1582.997 1582.759 1582.426 1582.028 1581.623 1581.215 1580.741 1580.135 1579.539 1578.958 1578.229 1577.563 1576.993 1576.376 1575.655 1574.887 1574.134 1573.357 1572.559 1571.771 1571.063 1570.472 1569.804 1568.988 1568.168 1567.316 1566.412 1565.475 1564.609 1563.879 1563.235 1562.68 1562.352 1562.421 1562.709 1563.064 1563.392 1563.543 1563.548 1563.462 1563.354 1563.258 1563.137 1562.944 1562.613 1562.157 1561.664 1561.138 1560.618 1560.237 1559.921 1559.549 1559.131 1558.689 1558.238 1557.717 1557.06 1556.446 1556.119 1556.106 1556.299 1556.555 1556.652 1556.591 1556.524 1556.476 1556.417 1556.334 1556.215
1640.898 1640.745 1640.424 1639.993 1639.641 1639.372 1639.077 1638.883 1638.972 1639.388 1640.029 1640.649 1640.962 1640.773 1640.126 1639.386 1638.815 1638.301 1637.791 1637.43 1637.326 1637.477 1637.74 1638.01 1638.265 1638.43 1638.424 1638.295 1638.123 1637.926 1637.686 1637.323 1636.852 1636.419 1635.912 1635.229 1634.444 1633.739 1633.26 1632.904 1632.635 1632.386 1631.939 1631.224 1630.326 1629.337 1628.292 1627.213 1626.137 1625.025 1623.762 1622.45 1621.453 1620.797 1620.31 1619.994 1619.891 1619.881 1619.837 1619.804 1619.796 1619.827 1619.964 1620.264 1620.808 1621.606 1622.763 1624.266 1625.697 1626.596 1627.093 1627.54 1627.987 1628.415 1628.716 1628.754 1628.824 1629.06 1629.066 1628.721 1628.163 1627.386 1626.481 1625.532 1624.745 1624.484 1624.689 1625.041 1625.246 1625.137 1624.935 1624.867 1624.845 1624.617 1624.087 1623.468 1622.887 1622.322 1621.807 1621.193 1620.427 1619.807 1619.386 1618.982 1618.564 1618.236 1618.012 1617.812 1617.61 1617.428 1617.176 1616.714 1616.17 1615.717 1615.36 1614.995 1614.509 1613.944 1613.388 1612.892 1612.422 1611.827 1611.223 1611.006 1611.03 1611.049 1611.085 1611.139 1611.142 1611.093 1611.004 1610.763 1610.379 1610.006 1609.7 1609.427 1609.164 1608.906 1608.596 1608.165 1607.652 1607.108 1606.554 1606.035 1605.573 1605.297 1605.385 1605.49 1605.267 1604.921 1604.624 1604.411 1604.269 1604.058 1603.746 1603.45 1603.186 1602.946 1602.716 1602.55 1602.577 1602.809 1603.233 1603.828 1604.374 1604.566 1604.461 1604.254 1603.911 1603.365 1602.63 1601.723 1600.929 1600.537 1600.427 1600.473 1600.506 1600.323 1599.982 1599.491 1598.915 1598.318 1597.621 1596.798 1595.964 1595.354 1595.084 1595.021 1594.989 1594.916 1594.797 1594.637 1594.483 1594.389 1594.341 1594.191 1593.833 1593.512 1593.466 1593.51 1593.409 1593.199 1593.024 1592.829 1592.581 1592.303 1591.989 1591.62 1591.316 1591.382 1591.874 1592.719 1593.631 1594.141 1594.123 1593.679 1592.893 1592.024 1591.516 1591.55 1591.59 1591.369 1591.041 1590.626 1590.147 1589.664 1589.134 1588.667 1588.429 1588.319 1588.231 1588.169 1588.16 1588.215 1588.313 1588.421 1588.525 1588.633 1588.743 1588.849 1588.954 1589.046 1589.021 1588.944 1589.122 1589.455 1589.729 1589.869 1589.872 1589.769 1589.461 1589.087 1588.766 1588.34 1587.828 1587.315 1586.832 1586.414 1586.023 1585.623 1585.181 1584.65 1584.099 1583.667 1583.272 1582.851 1582.538 1582.28 1581.926 1581.497 1581.024 1580.533 1580.052 1579.582 1579.159 1578.689 1577.946 1577.117 1576.427 1575.776 1575.072 1574.35 1573.634 1572.867 1571.991 1571.032 1570.198 1569.516 1568.809 1567.995 1567.126 1566.297 1565.5 1564.662 1563.888 1563.296 1562.894 1562.691 1562.75 1563.066 1563.358 1563.547 1563.667 1563.654 1563.572 1563.469 1563.356 1563.188 1562.922 1562.518 1561.906 1561.276 1560.843 1560.453 1559.998 1559.595 1559.229 1558.816 1558.357 1557.831 1557.263 1556.712 1556.2 1555.852 1555.72 1555.696 1555.782 1556.012 1556.158 1556.154 1556.122 1556.083 1556.026 1555.953 1555.863
1640.251 1640.016 1639.758 1639.36 1639.072 1638.953 1638.817 1638.668 1638.682 1638.999 1639.6 1640.24 1640.624 1640.511 1639.914 1639.225 1638.624 1638.003 1637.39 1636.916 1636.748 1636.968 1637.306 1637.597 1637.868 1638.05 1638.03 1637.857 1637.662 1637.476 1637.288 1637.036 1636.653 1636.23 1635.776 1635.194 1634.523 1633.992 1633.584 1633.085 1632.688 1632.315 1631.656 1630.807 1629.917 1628.972 1627.894 1626.667 1625.38 1624.052 1622.718 1621.578 1620.767 1620.235 1619.895 1619.731 1619.667 1619.624 1619.572 1619.542 1619.536 1619.604 1619.872 1620.339 1621.062 1622.175 1623.544 1624.811 1625.942 1626.737 1627.295 1627.861 1628.321 1628.561 1628.622 1628.522 1628.531 1628.697 1628.677 1628.366 1627.749 1626.876 1625.919 1624.954 1624.115 1623.683 1623.678 1623.859 1624.017 1624.026 1623.977 1623.984 1624.014 1623.875 1623.419 1622.834 1622.27 1621.731 1621.172 1620.433 1619.601 1619.007 1618.66 1618.379 1618.086 1617.785 1617.542 1617.339 1617.151 1617.036 1616.898 1616.528 1616.005 1615.532 1615.079 1614.556 1613.979 1613.415 1612.941 1612.578 1612.174 1611.598 1611.09 1610.879 1610.744 1610.646 1610.626 1610.641 1610.635 1610.576 1610.46 1610.151 1609.774 1609.551 1609.426 1609.29 1609.117 1608.887 1608.553 1608.059 1607.49 1606.939 1606.372 1605.839 1605.405 1605.133 1605.096 1605.062 1604.824 1604.495 1604.195 1603.976 1603.81 1603.586 1603.3 1602.99 1602.676 1602.388 1602.172 1602.148 1602.316 1602.589 1603.028 1603.616 1604.112 1604.266 1604.161 1604.016 1603.806 1603.406 1602.822 1602.085 1601.383 1600.916 1600.554 1600.314 1600.198 1600.042 1599.787 1599.369 1598.835 1598.222 1597.467 1596.592 1595.624 1594.77 1594.384 1594.349 1594.363 1594.326 1594.22 1594.045 1593.885 1593.823 1593.783 1593.599 1593.217 1592.812 1592.57 1592.529 1592.503 1592.389 1592.293 1592.164 1591.941 1591.673 1591.366 1591.004 1590.699 1590.746 1591.26 1592.147 1593.144 1593.789 1593.877 1593.54 1592.834 1592.012 1591.497 1591.446 1591.459 1591.227 1590.874 1590.511 1590.165 1589.822 1589.396 1588.959 1588.634 1588.447 1588.293 1588.119 1588.03 1588.038 1588.108 1588.213 1588.321 1588.429 1588.535 1588.641 1588.749 1588.821 1588.74 1588.612 1588.778 1589.114 1589.356 1589.439 1589.481 1589.52 1589.336 1588.934 1588.511 1588.044 1587.51 1586.937 1586.389 1585.949 1585.582 1585.187 1584.722 1584.166 1583.542 1582.999 1582.634 1582.365 1582.102 1581.772 1581.329 1580.844 1580.349 1579.84 1579.357 1578.977 1578.704 1578.34 1577.614 1576.693 1575.9 1575.184 1574.45 1573.759 1573.1 1572.417 1571.588 1570.553 1569.558 1568.716 1567.942 1567.05 1566.063 1565.208 1564.443 1563.769 1563.319 1563.036 1562.879 1562.901 1563.139 1563.528 1563.773 1563.81 1563.769 1563.676 1563.573 1563.461 1563.3 1563.019 1562.523 1561.839 1561.043 1560.411 1560.119 1559.895 1559.547 1559.125 1558.62 1558.072 1557.506 1556.877 1556.327 1555.936 1555.678 1555.555 1555.496 1555.439 1555.421 1555.543 1555.683 1555.705 1555.68 1555.582 1555.402 1555.365 1555.379
1639.83 1639.274 1638.818 1638.406 1638.284 1638.428 1638.542 1638.496 1638.443 1638.623 1639.121 1639.699 1640.097 1640.114 1639.67 1639.063 1638.451 1637.807 1637.151 1636.482 1636.089 1636.353 1636.816 1637.172 1637.505 1637.723 1637.703 1637.503 1637.287 1637.104 1636.928 1636.712 1636.385 1635.973 1635.536 1635.065 1634.583 1634.207 1633.801 1633.204 1632.721 1632.217 1631.353 1630.351 1629.362 1628.295 1627.1 1625.806 1624.456 1623.055 1621.777 1620.868 1620.255 1619.859 1619.633 1619.516 1619.445 1619.386 1619.332 1619.309 1619.353 1619.501 1619.855 1620.466 1621.483 1623.025 1624.561 1625.568 1626.382 1627.132 1627.747 1628.214 1628.479 1628.571 1628.593 1628.56 1628.505 1628.454 1628.284 1627.83 1627.067 1626.156 1625.215 1624.296 1623.518 1623.042 1622.92 1622.989 1623.073 1623.095 1623.103 1623.158 1623.227 1623.204 1622.934 1622.391 1621.74 1621.153 1620.563 1619.827 1619.062 1618.471 1618.08 1617.806 1617.57 1617.314 1617.072 1616.83 1616.632 1616.596 1616.547 1616.246 1615.733 1615.196 1614.684 1614.109 1613.462 1612.921 1612.608 1612.362 1612.012 1611.557 1611.156 1610.863 1610.573 1610.38 1610.33 1610.361 1610.351 1610.194 1609.938 1609.535 1609.123 1608.931 1608.932 1608.935 1608.866 1608.71 1608.394 1607.906 1607.395 1606.89 1606.319 1605.8 1605.461 1605.224 1605.003 1604.755 1604.434 1604.085 1603.774 1603.527 1603.292 1603.016 1602.698 1602.349 1602.002 1601.72 1601.604 1601.734 1601.981 1602.273 1602.726 1603.237 1603.571 1603.675 1603.625 1603.554 1603.449 1603.226 1602.869 1602.387 1601.825 1601.267 1600.723 1600.283 1599.991 1599.784 1599.552 1599.17 1598.668 1598.04 1597.253 1596.397 1595.484 1594.526 1593.857 1593.665 1593.652 1593.614 1593.529 1593.395 1593.285 1593.244 1593.234 1593.154 1592.918 1592.508 1592 1591.658 1591.579 1591.574 1591.56 1591.5 1591.337 1591.099 1590.803 1590.424 1590.117 1590.176 1590.676 1591.548 1592.561 1593.31 1593.551 1593.329 1592.664 1591.937 1591.606 1591.557 1591.449 1591.14 1590.73 1590.363 1590.112 1589.853 1589.469 1589.085 1588.808 1588.608 1588.355 1588.066 1587.922 1587.894 1587.921 1588.009 1588.115 1588.223 1588.331 1588.439 1588.545 1588.584 1588.441 1588.285 1588.428 1588.74 1588.936 1588.977 1589.068 1589.212 1589.171 1588.834 1588.317 1587.743 1587.171 1586.61 1586.046 1585.554 1585.19 1584.775 1584.25 1583.66 1582.964 1582.267 1581.824 1581.678 1581.573 1581.31 1580.888 1580.411 1579.935 1579.45 1578.943 1578.458 1578.099 1577.787 1577.148 1576.204 1575.322 1574.555 1573.744 1572.942 1572.284 1571.749 1571.102 1570.177 1569.144 1568.163 1567.212 1566.178 1565.144 1564.298 1563.638 1563.282 1563.174 1563.148 1563.19 1563.302 1563.496 1563.767 1563.917 1563.89 1563.788 1563.673 1563.551 1563.346 1562.999 1562.493 1561.807 1561.01 1560.243 1559.725 1559.494 1559.326 1559.069 1558.712 1558.151 1557.448 1556.744 1556.131 1555.738 1555.518 1555.388 1555.321 1555.281 1555.245 1555.224 1555.286 1555.387 1555.423 1555.392 1555.228 1554.94 1554.805 1554.788
