1637.76 1633.92 1633.68 1634.06 1634.89 1635.6 1634.3 1632.01 1630.81 1629.59 1627.84 1628.03 1628.53 1627.48 1626.84 1625.3 1624.16 1622.67 1621.47 1622.95 1622.68 1620.63 1621.41 1622.06 1621.72 1620.2 1620.4 1619.55 1618.21 1616.97 1617.53 1616.74 1615.24 1616.59 1617.73 1617.32 
1634.33 1633.54 1633.44 1634.91 1635.77 1635.14 1632.35 1631.46 1630.16 1628.33 1627.72 1625.98 1626.1 1627.38 1626.92 1625.15 1622.89 1622.19 1620.5 1621.23 1621.37 1619.36 1620.55 1621.7 1620.64 1620.16 1618.37 1618.81 1617.62 1616.83 1616.84 1617.28 1615.05 1613.9 1613.61 1614.83 
1633.25 1633.33 1633.8 1635.91 1635.8 1634.07 1631.86 1630.96 1629.8 1628.36 1627.42 1625.02 1625.02 1626.49 1626.1 1624.74 1622.62 1622.07 1620.26 1620.62 1621.11 1620.06 1620.14 1621.09 1620.11 1619.33 1617.86 1618.58 1618.33 1617.91 1617.11 1616.76 1615.3 1613.8 1613.87 1612.75 
1633.14 1633.42 1634.48 1635.55 1635.3 1632.5 1632.4 1629.89 1629.13 1627.05 1626.8 1624.35 1624.43 1625.68 1624.93 1624.57 1622.09 1621.24 1620.55 1620.75 1620.83 1619.49 1619.91 1620.15 1618.47 1617.96 1618.69 1617.17 1616.96 1617.81 1617.48 1616.28 1615.58 1613.2 1612.46 1611.76 
1632.99 1633.25 1635.48 1636.13 1635.35 1631.72 1630.94 1629.29 1627.75 1627.05 1624.71 1624.03 1623.38 1625.08 1624.69 1623.68 1622.75 1619.82 1619.21 1619.77 1620.75 1618.97 1619.44 1619.86 1617.61 1615.57 1616.78 1616.94 1616.03 1617.27 1616.39 1615.65 1614.47 1612.11 1611.78 1611.3 
1633.02 1635.08 1635.54 1636.21 1633.5 1629.76 1629.16 1628.55 1626.96 1626.3 1625.27 1623.27 1621.7 1621.41 1622.51 1622.66 1621.94 1620.04 1618.49 1617.34 1618.25 1617.79 1618.83 1617.96 1617 1615.48 1614.91 1615.57 1614.34 1615.94 1615.46 1614.59 1614.13 1611.42 1610.5 1609.29 
1633.55 1635.25 1635.85 1634.32 1632.16 1629.66 1628.69 1628.09 1627.63 1626.07 1625.31 1622.4 1620.87 1619.46 1620.67 1621.56 1621.05 1620.18 1618.26 1616.34 1616.83 1618.23 1618.51 1618.04 1616.62 1616.7 1614.93 1614.8 1613.77 1614.76 1614.85 1614.02 1613.51 1611.41 1610.51 1608.27 
1634.89 1635.57 1635.33 1632.46 1631.41 1630.12 1629.7 1628.24 1626.53 1624.37 1623.34 1622.4 1620.46 1619.67 1620.11 1621.49 1620.94 1620.51 1619.73 1616.57 1616.96 1618.59 1618.45 1617.92 1617.03 1616.69 1614.85 1613.58 1612.79 1612.03 1613.81 1612.24 1611.97 1610.97 1610.77 1608.11 
1634.79 1635.61 1633.45 1631.18 1631.17 1629.6 1628.15 1628.46 1627.68 1625.44 1624.42 1622.45 1621.66 1620.26 1619.47 1620.48 1621.16 1620.12 1618.87 1617.8 1616.48 1618.26 1618.37 1618.06 1616.83 1616.79 1614.29 1613.25 1613.14 1611.58 1612.49 1612.49 1611.92 1610.39 1609.99 1609.22 
1635.07 1632.47 1631.21 1628.68 1628.19 1628.56 1628.87 1626.4 1626.16 1625.69 1624.88 1622.98 1621.62 1619.98 1619.15 1617.83 1618.83 1619.08 1618.67 1617.88 1617.49 1616.37 1616.56 1617.69 1616.65 1615.6 1615.97 1614.07 1613.01 1611.52 1611.19 1612.29 1610.38 1609.31 1609.22 1607.5 
1634.24 1632.42 1630.53 1627.74 1626.55 1627.03 1626.96 1626.07 1624.85 1624.5 1623.92 1622.15 1621.05 1619.46 1619.22 1617.26 1615.99 1618.25 1618.31 1617.63 1617.23 1616.14 1615.44 1616.4 1616.02 1613.82 1613.56 1613.26 1612.85 1610.63 1611.62 1611.71 1609.41 1609.45 1608.75 1607.22 
1632.6 1630.12 1629.84 1626.49 1625.55 1625.16 1625.38 1622.97 1624.18 1623.92 1621.72 1620.63 1621.01 1620.37 1618.59 1616.93 1615.71 1614.71 1615.95 1617.74 1617.29 1616.53 1615.48 1615.41 1614.79 1614.13 1612.38 1612.48 1611.29 1610.54 1610.48 1609.93 1608.94 1608.57 1606.89 1604.83 
1631.25 1630.01 1628.64 1626.05 1626.03 1624.85 1624.47 1622.92 1623.53 1621.59 1620.7 1619.88 1619 1619.61 1618.9 1616.59 1614.63 1614.08 1613.65 1615.82 1616.43 1616.03 1615.42 1614.51 1614.81 1614.05 1611.58 1610.79 1610.47 1609.45 1609.34 1608.36 1607.09 1608.03 1607.66 1604.26 
1629.9 1628.71 1627.75 1626.23 1625.44 1624.34 1623 1622.44 1621.54 1620.8 1619.6 1618.79 1617.93 1616.97 1616.28 1614.15 1613.82 1612.69 1611.91 1612.33 1613.16 1614.22 1614.24 1613.74 1613.26 1613.48 1612.2 1609.43 1608.87 1609.01 1607.16 1607.35 1606.96 1605.47 1605.65 1604.82 
1628.38 1628.16 1627.56 1626.01 1625.38 1623.36 1622.01 1621.83 1621.19 1619.26 1618.45 1617.15 1615.67 1616.62 1615.99 1613.85 1613.1 1612.24 1611.73 1610.75 1611.35 1613.19 1613.48 1613.37 1612.24 1612.23 1611.27 1608.79 1608.17 1608.99 1607.8 1607.05 1606.19 1604.76 1604.02 1603.88 
1627.69 1625.41 1625.05 1623.82 1623.75 1622.89 1622.36 1621.64 1620.68 1620.02 1617.85 1615.03 1613.09 1613.04 1613.79 1612.98 1612.92 1612 1611.45 1610.59 1609.29 1609.95 1611.14 1612.06 1611.18 1610.78 1609.91 1608.41 1607.92 1607.36 1608.06 1606.1 1605.67 1603.66 1602.52 1602 
1627.07 1625.06 1624.71 1623.65 1623.17 1622.46 1621.88 1621.15 1620.84 1618.57 1616.79 1615.26 1613.35 1612.48 1612.4 1611.77 1611.69 1611.58 1610.9 1610.49 1609.69 1608.64 1609.35 1611.23 1611.03 1610.17 1608.67 1608.07 1607.56 1607.05 1607.02 1605.96 1605.29 1603.48 1602.7 1600.89 
1625.06 1623.07 1622.98 1623.67 1622.71 1622.11 1621.8 1620.66 1619.19 1619.05 1617.97 1615.71 1614.19 1613.47 1613.11 1611.81 1611.44 1613.48 1613.04 1609.91 1609.36 1607.75 1608.03 1609.71 1609.58 1608.74 1609.56 1607.29 1607.14 1606.21 1604.84 1604.54 1605.09 1603.81 1602.67 1599.59 
1624.09 1621.97 1622.05 1622.65 1622.13 1621.67 1621.09 1620.85 1619.31 1618.6 1617.52 1617.05 1615.51 1614.21 1613.87 1611.7 1611.11 1612.25 1612.69 1610.68 1609.36 1607.98 1606.99 1608.58 1608.84 1608.42 1608.17 1606.85 1605.94 1604.51 1603.92 1603.51 1603.63 1603.09 1602.57 1600.27 
1622.51 1620.81 1620.59 1620.4 1620.08 1620.1 1621.04 1620.34 1619.51 1618.61 1617.12 1614.59 1614.07 1613.99 1613.17 1612.5 1611.84 1609.57 1609.87 1610.41 1609.35 1607.05 1606.03 1605.67 1607.25 1607.02 1606.14 1605.47 1604.73 1602.93 1602.43 1602.38 1602.65 1601.7 1601.64 1601.64 
1621.48 1619.78 1619.79 1618.43 1618.83 1618.5 1619.24 1620.26 1619.91 1619.06 1617.11 1614.79 1613.37 1612.48 1611.96 1610.31 1610.34 1609.2 1609.06 1610.14 1609.6 1607.53 1606.41 1604.94 1605.38 1606.25 1606.35 1604.34 1603.86 1602.5 1601.56 1602.45 1602.42 1600.15 1600.01 1600.1 
1619.78 1618.65 1618.57 1618.59 1617.18 1617.78 1617.6 1616.16 1616.32 1616.5 1615.68 1613.99 1613.36 1611.07 1610.57 1609.55 1608.1 1608.03 1608.22 1608.35 1608.21 1606.88 1606.45 1605.52 1604.14 1605.13 1605.38 1604.16 1603.81 1603.25 1602.3 1602.06 1601.05 1600.1 1599.55 1599.3 
1618.91 1618.04 1617.74 1617.44 1616.52 1616.05 1616.14 1616.12 1616.51 1615.12 1614.76 1613.2 1612.54 1611.67 1609.9 1609.56 1608.7 1607.53 1608.09 1607.15 1606.72 1606.46 1605.61 1604.85 1604.16 1603.62 1604.11 1604.79 1603.89 1602.81 1602.05 1601.07 1600.58 1599.95 1599.36 1598.69 
1618.84 1617.57 1617.69 1616.66 1615.94 1615.02 1615.41 1615.48 1615.37 1614.22 1613.49 1613.24 1611.16 1609.45 1609.98 1608.54 1608.8 1607.14 1606.38 1606.5 1605.78 1606.04 1605.62 1604.1 1603.84 1602.54 1602.86 1604.18 1604.25 1602.15 1600.97 1600.25 1599.51 1598.32 1598.25 1597.37 
1619.56 1618.41 1617.85 1616.15 1615.4 1614.68 1615.18 1614.91 1613.64 1612.18 1612.77 1612.4 1611.09 1608.38 1608.92 1608.18 1607.16 1606.74 1605.93 1606.16 1604.86 1604.56 1604.36 1604.43 1603.87 1601.77 1602.15 1603.03 1603.48 1601.79 1601.03 1600.23 1599.17 1597.6 1596.96 1596.43 
1619.05 1618.49 1617.59 1616.28 1614.87 1614.06 1613.52 1615.1 1612.8 1611.49 1611.05 1610.18 1609.48 1608.11 1606.11 1606.95 1606.11 1605.29 1605.61 1605.32 1604.83 1605 1603.39 1603.47 1602.89 1601.94 1601.29 1600.87 1600.81 1601.22 1600.87 1601.01 1600.02 1599.23 1598.83 1596.81 
1618.89 1616.73 1617.02 1615.02 1614 1613.6 1613.74 1611.75 1612.02 1610.58 1609.42 1609.26 1608.68 1607.71 1605.87 1606.09 1605.91 1604.66 1605.42 1604.67 1604.37 1604.46 1603.89 1602.06 1601.68 1600.77 1600.69 1599.94 1599.77 1600.39 1599.03 1599.81 1599.47 1598.84 1598.52 1597.77 
1617 1615.7 1614.98 1614.05 1612.96 1611.83 1613.9 1614.08 1613.16 1611.19 1609.63 1608.62 1608.22 1607.14 1605.81 1605.41 1605.56 1605.2 1604.21 1604.4 1603.94 1603.46 1603.49 1600.43 1599.95 1598.74 1598.14 1598.7 1599.39 1598.7 1598.45 1597.36 1597.91 1597.22 1596.6 1597.33 
1615.61 1615.01 1614.68 1613.42 1611.8 1610.78 1611.93 1611.99 1612.11 1610.31 1609.8 1608.06 1607 1606.55 1606.18 1605.18 1604.86 1605.49 1604.93 1603.78 1603.64 1603.03 1603.1 1599.54 1598.82 1598.51 1597.6 1598.8 1598.83 1598 1597.88 1596.96 1597.05 1596.88 1595.54 1596.18 
1614.18 1613.47 1613.79 1613.04 1613.03 1611.76 1610.14 1609.87 1610.01 1608.01 1607.96 1606.98 1606.48 1604.99 1606.18 1604.86 1603.83 1605.28 1605.22 1603.18 1602.68 1601.89 1601.67 1600.29 1599.18 1597.48 1596.91 1596.65 1597.13 1597.13 1596.37 1596.19 1595.48 1595.17 1594.43 1593.98 
1612.72 1612.22 1611.81 1612.1 1611.62 1611.48 1610.39 1608.76 1608.5 1606.27 1606.33 1607.1 1605.96 1604.23 1604.68 1604.44 1603.37 1604.95 1605.03 1603.93 1602.18 1601.57 1600.91 1600.44 1599.36 1596.96 1596.2 1596 1596.43 1596.15 1595.34 1595.18 1594.75 1593.66 1593.3 1592.25 
1612.39 1612.37 1611.66 1610.97 1610.44 1609.79 1609.53 1608.51 1608 1605.79 1605.84 1605.16 1604.46 1603.09 1602.23 1602.68 1602.57 1603.91 1604.27 1603.61 1603.06 1601.75 1600.87 1599.87 1598.79 1595.9 1594.68 1594.69 1594.41 1593.95 1593.52 1591.54 1591.92 1591.9 1591.36 1590.33 
1612.23 1610.97 1610.77 1609.83 1608.73 1607.93 1608.58 1607.59 1607.51 1605.93 1605.37 1604.61 1602.43 1602.02 1600.95 1600.84 1602.93 1603.72 1603.35 1603.11 1603.29 1601.62 1600.83 1599.22 1598.12 1595.7 1594.75 1594.13 1592.29 1593.4 1593.09 1592.36 1591.26 1590.74 1590.5 1589.32 
