1851.13 1851.26 1850.77 1850.75 1852.64 1851.92 1852.05 1852.35 1852.04 1851.37 1849.54 1849.33 1849.55 1848.39 1848.81 1850.98 1851.99 1855.14 1855.45 1854.34 1852.49 1850.16 1850.16 1849.36 1849.65 1847.85 1848.36 1849.66 1849.87 1850.14 1850.71 1851.21 1851.69 1853.15 1853.97 1854.4 1854.26 1853.83 1854.88 1853.74 1852.25 1852.09 1852.03 1852.21 1852.45 1852.79 1852.61 1853.26 1853.19 1851.98 1851.11 1851.45 1851.96 1851.23 1851.77 1852.68 1851.78 1851.73 1852.79 1852.79 1852.9 
1850.11 1849.73 1849.58 1849.99 1850.15 1850.61 1850.88 1850.16 1850.13 1848.99 1847.92 1846.33 1846.63 1846.63 1847.26 1850.18 1851.26 1853.72 1854.18 1853.58 1852.38 1850.46 1849.76 1848.43 1847.46 1846.51 1846.61 1847.52 1848.34 1848.14 1848.98 1849.39 1850.54 1851.27 1851.06 1852.64 1852.38 1853.48 1854.07 1852.57 1851.3 1850.2 1850.44 1850.5 1851.59 1852.69 1851.13 1852.51 1851.74 1851.42 1850.28 1848.86 1849.49 1850.26 1851.51 1849.99 1849.08 1850.5 1852.2 1851.76 1852.21 
1849 1849.09 1848.98 1849.54 1849.66 1849.93 1848.97 1848.65 1849.27 1848.72 1847.66 1845.15 1845.42 1845.62 1846.05 1848.91 1850.42 1853.06 1853.38 1852.99 1851.86 1850.48 1850.8 1848.53 1847.07 1846.26 1845.99 1845.8 1846.88 1847.02 1847.15 1848.45 1849.53 1849.78 1849.79 1852.09 1851.37 1853.22 1852.7 1851.3 1850.73 1849.21 1849.32 1849.88 1850.63 1851.76 1851.44 1851.43 1851.24 1850.42 1849.36 1848.67 1848.05 1849.52 1850.46 1848.63 1849.36 1851.05 1851.71 1850.92 1850.73 
1847.34 1847.16 1846.66 1848.39 1848.75 1847.44 1846.58 1847.06 1848.12 1848.17 1847.48 1845.15 1844.59 1845.03 1845.14 1847.33 1847.74 1850.79 1851.57 1851.59 1849.14 1849.39 1849.53 1848.28 1846.73 1846.1 1846.31 1843.93 1845.39 1846.28 1845.78 1846.45 1847.27 1847.65 1848.79 1851.02 1850.55 1851.65 1849.87 1849.84 1849.98 1848.28 1848.43 1849.07 1849.24 1849.44 1849.75 1850.58 1851.09 1849.41 1848.51 1847.64 1846.74 1847.76 1848.61 1848.19 1849.79 1850.07 1850.28 1849.39 1850.66 
1846.47 1845.91 1845.9 1846.21 1847.5 1847.03 1846.54 1846.69 1847.49 1848.04 1847.05 1844.19 1844.1 1844.1 1844.72 1846.39 1846.96 1849.2 1850.24 1849.8 1848.8 1847.51 1847.45 1847.28 1846.55 1845.7 1844.71 1843.05 1844.69 1844.67 1844.45 1845.27 1845.41 1846.13 1848.15 1850.06 1850.39 1850.26 1848.09 1847.55 1848.62 1847.93 1848 1848.77 1848.65 1847.67 1848.73 1849.1 1849.71 1848.96 1847.89 1846.86 1845.53 1847.12 1847.96 1847.65 1847.67 1847.78 1846.81 1848.09 1849.11 
1845.27 1844.87 1844.82 1843.94 1844.97 1846.99 1845.99 1846.47 1847.96 1846.65 1846.31 1843.98 1843.62 1843.57 1844.77 1846.1 1846.18 1847.18 1848.58 1848.29 1847.84 1846.61 1846.28 1845.63 1845.92 1843.7 1843.09 1843.37 1844.23 1842.32 1843.3 1841.67 1843.36 1844.54 1846.89 1847.93 1849.17 1847.22 1845.84 1844.91 1846.42 1846.61 1846.34 1848.06 1847.85 1846.98 1847.57 1847.74 1848.41 1847.14 1846.53 1845.35 1844.59 1846.09 1845.88 1845.79 1846.59 1845.47 1843.87 1846.5 1846.76 
1845.08 1844.58 1844.2 1843.39 1843.6 1845.77 1845.42 1846.73 1846.95 1845.98 1845.81 1842.38 1843.09 1843.13 1845.06 1845.7 1845.63 1845.88 1847.59 1847.01 1846.61 1846.89 1846.16 1845.66 1845.68 1842.81 1842.26 1843.13 1843.43 1841.74 1841.75 1842.22 1842.81 1844.2 1845.43 1846.53 1847.49 1845.06 1844.77 1843.97 1844.92 1844.51 1844.86 1847.04 1846.52 1846.1 1846.4 1846.54 1846.45 1846.72 1845.89 1844.67 1843.67 1845.18 1844.61 1844.86 1846.18 1844.09 1842.99 1845.29 1845.84 
1844.24 1842.74 1842.88 1842.47 1842.49 1843.5 1844.6 1845.28 1844.97 1844.5 1843.79 1841 1841.29 1842.62 1844.77 1845.3 1844.27 1844.79 1845.95 1845.58 1845.67 1845.28 1844.98 1845.27 1843.93 1842.06 1841.91 1842.29 1842.31 1840.38 1841.11 1841.16 1841.96 1843.04 1843.6 1843.73 1843.3 1843.27 1842.96 1841.87 1842.73 1842.81 1842.3 1844.31 1844.81 1844.77 1845.54 1844.89 1843.07 1844.95 1844.08 1843.15 1842.67 1844.04 1843.02 1844.33 1843.49 1842.48 1842.19 1844.58 1845.22 
1844.82 1841.99 1841.87 1841.72 1841.94 1843.19 1844.24 1844.28 1843.8 1842.74 1841.7 1840.31 1840.69 1842.69 1844.56 1844.68 1844.21 1844.85 1846.41 1844.23 1845.12 1845.47 1844.37 1844.85 1844.2 1842.13 1842.02 1841.92 1841.88 1840.39 1839.59 1840.22 1840.92 1841.23 1842.79 1841.92 1840.91 1841.88 1842.06 1840.84 1841.29 1841.69 1840.99 1842.64 1842.91 1843.09 1843.32 1843.82 1841.65 1843.86 1843.46 1843.08 1841.74 1842.88 1841.87 1843.74 1843.03 1840.98 1842.19 1844.38 1844.89 
1843.15 1841.16 1840.58 1841.06 1841.36 1843.02 1843.29 1843.87 1843.12 1840.63 1839.94 1839.4 1839.82 1842.98 1843.92 1843.97 1843.36 1843.08 1844.28 1843.92 1843.1 1843.56 1843.41 1843.62 1843.04 1841.27 1840.25 1841.45 1840.66 1840.12 1839.78 1839.46 1840.12 1839.61 1840.6 1840.43 1839.47 1839.37 1839.49 1839.5 1839.3 1840.3 1838.88 1839.92 1840.92 1841.51 1842.05 1842.73 1840.76 1841.67 1841.67 1841.15 1841.54 1841.81 1841.21 1843.41 1842.69 1840.83 1841.47 1843.38 1842.72 
1842.8 1841.21 1841.05 1841.82 1841.87 1842.74 1843.15 1843.77 1842.32 1839.17 1839.68 1839.31 1840.36 1843.02 1843.87 1843.4 1841.99 1841.55 1843.02 1843.6 1842.75 1843.2 1842.99 1842.65 1842.55 1842.08 1840.55 1839.86 1840.26 1839.18 1839.3 1839.07 1839.49 1839.02 1839.74 1839.65 1838.84 1838.18 1837.93 1838.23 1838.24 1839.43 1838.05 1839.13 1840.12 1839.81 1840.55 1842.17 1839.7 1840.53 1840.55 1840.31 1841.9 1841.1 1841.43 1843.25 1842.13 1840.8 1841.74 1842.17 1842.08 
1841.37 1841.33 1841.71 1842.1 1842.41 1841.39 1842.31 1842.83 1841.71 1838.07 1838.25 1839.06 1841.55 1842.74 1842.8 1841.98 1841.29 1840.8 1842.43 1842.82 1842.52 1842.34 1842.37 1842.06 1841.27 1839.85 1839.69 1839.03 1838.67 1838.78 1838.16 1837.73 1838.2 1838.62 1839.23 1838.81 1838.96 1837.73 1837.17 1836.07 1836.61 1837.41 1837.67 1838.3 1839.08 1838.52 1838.18 1840.71 1840.23 1840.11 1839.98 1839.19 1840.34 1839.73 1841.06 1842.42 1841.36 1841.17 1841.72 1841.77 1842.67 
1840.2 1839.72 1840.65 1841.16 1842.1 1841.57 1841.77 1842.22 1840.53 1839.03 1838.8 1839.16 1841.47 1841.87 1842.19 1839.9 1839.43 1840.4 1841.62 1842.54 1841.96 1842.38 1842.29 1841.23 1839.95 1839.69 1839.13 1837.76 1837.3 1838.14 1838.52 1837.37 1838.35 1838.08 1838.87 1838.66 1838.4 1837.4 1837.04 1836.22 1836.32 1836.9 1837.32 1837.56 1837.57 1838.22 1837.86 1839.44 1840.02 1839.29 1838.85 1838.29 1838.71 1839.21 1840.02 1841.66 1841.01 1840.92 1840.99 1841.35 1841.55 
1838.83 1838.93 1840.3 1840.57 1840.34 1840.8 1841.37 1841.66 1840.68 1840.12 1839.8 1838.95 1840.72 1840.61 1840.34 1837.98 1838.1 1839.25 1840.17 1841.54 1841.28 1841.34 1841.57 1841.08 1838.43 1837.91 1838.7 1836.11 1835.39 1835.92 1836.98 1836.82 1836.35 1836.13 1835.77 1837.89 1837.62 1835.54 1835.93 1835.29 1836.34 1836.47 1836.7 1836.73 1836.63 1836.89 1836.89 1838.19 1838.53 1837.91 1837.71 1836.05 1836.21 1837.8 1838.22 1839.69 1839.56 1840.27 1840.12 1840.48 1840.33 
1837.75 1838.19 1840 1839.68 1840.23 1840.47 1841.1 1841.29 1840.87 1840.06 1839.18 1839.12 1840.16 1839.95 1838.75 1837.51 1837.97 1838.29 1838.98 1840.68 1841.09 1839.88 1839.79 1840.21 1837.91 1836.36 1836.93 1836.42 1834.84 1835.75 1835.49 1836.11 1834.74 1834.14 1834.5 1837.58 1836.56 1835.25 1835.41 1835 1835.03 1835.9 1836.07 1836.08 1836.37 1836.54 1836.16 1837.17 1837.57 1836.53 1836.99 1835.15 1835.41 1836.19 1837.33 1838.45 1838.55 1839.58 1839.63 1839.45 1839.05 
1834.56 1836.98 1838.41 1839.71 1840.68 1840.27 1840.36 1839.93 1839.79 1839.84 1838.28 1839.23 1839.22 1838.99 1837.24 1837.1 1837.71 1836.84 1837.72 1838.6 1839.11 1839.34 1838.6 1837.2 1836.87 1835.71 1834.54 1834.66 1834.41 1834.78 1834.68 1833.73 1833.05 1834.05 1834.63 1835.11 1834.91 1834.53 1834.93 1834.34 1834.67 1834.6 1835.35 1835.29 1835.59 1836.22 1834.72 1835.1 1835.14 1834.81 1834.78 1834.4 1833.97 1835.28 1835.83 1836.82 1837.56 1837.9 1837.69 1837.88 1837.91 
1832.45 1833.72 1837.96 1839.84 1839.63 1839.42 1839.77 1839.16 1839.31 1839.52 1838.99 1838.77 1839.08 1837.14 1836.09 1836.24 1836.02 1836.47 1836.61 1837.83 1838.26 1838.7 1837.72 1836.17 1835.62 1835.21 1834.14 1832.9 1832.13 1833.86 1833.68 1832.93 1832.82 1833.78 1834.5 1834.25 1833.16 1834.1 1834.67 1833.9 1834.57 1835.32 1834.89 1834.79 1835.51 1836.23 1834.48 1834.87 1835 1834.85 1834.07 1833.45 1833.59 1834.58 1834.92 1836.5 1836.88 1837.39 1836.63 1836.91 1837.11 
1831.49 1831.16 1831.64 1835.19 1834.87 1836.94 1838.68 1837.85 1838.33 1837.9 1838.09 1838.72 1838.06 1835.35 1834.63 1832.87 1833.87 1834.36 1834.74 1836.89 1837.21 1836.65 1836.31 1834.9 1834.04 1833.01 1832.72 1831.95 1832.21 1832.18 1832.24 1832.2 1831.88 1833.13 1833.04 1832.18 1831.45 1832.46 1833.46 1833.01 1833.53 1835.26 1834.89 1834.82 1835.58 1833.98 1833.83 1834.24 1834.28 1834.1 1833.03 1832.57 1833.39 1833.66 1832.75 1835.51 1835.66 1836.88 1836.74 1835.64 1835.55 
1830.45 1830.79 1830.43 1830.22 1831.12 1835.13 1837.04 1837.36 1838.1 1837 1838.12 1838.07 1835.99 1834.68 1833.3 1831.55 1833.41 1833.15 1834.28 1836.73 1836.64 1835.18 1835.68 1834.77 1833.19 1832.4 1832.3 1832.07 1831.8 1831.76 1831.4 1831.81 1831.6 1832.24 1832.3 1830.95 1830.94 1831.57 1832.77 1832.2 1832.64 1834.12 1834.45 1834.27 1834.99 1832.69 1833.94 1833.69 1833.67 1833.23 1831.9 1832.31 1832.94 1832.89 1832.97 1834.48 1834.72 1835.3 1835.56 1834.81 1834.46 
1826.7 1830.35 1830.39 1830.16 1829.61 1829.83 1834.14 1837.09 1837.57 1836.16 1836 1834.39 1833.47 1832.32 1831.7 1831.5 1832.47 1832.19 1832.39 1834.59 1834.04 1832.83 1833.16 1834.03 1833.85 1832.27 1832.25 1831.49 1830.63 1830.85 1830.36 1830.48 1831.55 1831.1 1831.31 1830.02 1830.36 1830.46 1831.53 1830.79 1831.35 1832.96 1832.47 1833.38 1833.06 1832.54 1832.36 1832.36 1832.16 1830.99 1830.69 1831.42 1832.06 1832.09 1831.73 1832.49 1832.75 1833.39 1832.29 1832.72 1833.67 
1826.12 1827.31 1829.08 1829.88 1829.66 1829.38 1829.76 1833.27 1836.13 1835.03 1834.75 1832.78 1831.98 1831.52 1831.16 1830.15 1830.98 1831.63 1831.4 1832.36 1832.55 1832.35 1832.16 1833.84 1833.35 1831.2 1831.18 1829.7 1829.17 1830.08 1830.47 1830.43 1831.43 1830.79 1830.83 1829.29 1829.75 1829.6 1830.59 1830.4 1831.32 1831.92 1831.34 1831.84 1831.4 1832.3 1831.86 1831.89 1831.23 1830.78 1830.5 1830.78 1831.04 1831.33 1830.8 1831.42 1832.33 1832.11 1831.6 1831.63 1832.07 
1822.32 1825.76 1825.96 1827.22 1828.38 1829.06 1828.94 1828.54 1829.37 1832.59 1833.01 1830.9 1830.03 1830.39 1830.32 1829.3 1828.04 1830.04 1829.77 1829.92 1830.33 1830.31 1830.42 1830.72 1831.63 1831.09 1829.44 1827.91 1827.82 1828.54 1828.98 1828.74 1829.98 1829.75 1829.62 1827.97 1827.73 1828.94 1830.59 1830.6 1830.24 1830.41 1829.99 1831.59 1831.75 1831.77 1831.24 1830.56 1830.59 1829.47 1830.15 1829.86 1830.34 1830.37 1830.26 1830.63 1830.84 1829.69 1829.52 1830.47 1830.65 
1822.16 1821.71 1822.73 1824.64 1824.96 1827.41 1828.65 1828.26 1827.96 1828.54 1829.83 1828.87 1828.89 1830.41 1830.38 1829 1827.18 1828.42 1828.44 1829.17 1828.22 1829.78 1829.33 1828.51 1829.19 1830.25 1829.25 1827.42 1827.5 1827.68 1828.28 1826.69 1828.95 1829.1 1829.1 1827.73 1827.25 1829.48 1830 1829.58 1829.89 1829.7 1830.8 1830.56 1830.89 1831.37 1830.85 1829.59 1830.01 1829.44 1828.8 1829.7 1829.9 1829.96 1829.74 1829.44 1829.78 1829.2 1829.23 1830.1 1829.54 
1821.9 1821.5 1821.21 1820.74 1822.46 1823.84 1825.03 1826.63 1827.49 1826.94 1826.57 1826.93 1826.93 1827.91 1828.64 1828.38 1826.66 1827.02 1827.17 1827.88 1828.03 1828.21 1827.83 1827.2 1827.03 1828.56 1828.26 1826.65 1826.57 1827 1827.78 1826.62 1827.73 1828.28 1827.73 1826.22 1826.92 1826.92 1827.53 1828.63 1829.65 1830.8 1830.27 1829.5 1829.76 1830.38 1830.53 1828.67 1828.7 1828.25 1827.72 1829.62 1829.12 1829.3 1829.02 1828.56 1828.05 1828.23 1827.26 1828.43 1827.59 
1821.74 1821.33 1821.02 1820.49 1820.24 1821.36 1822.47 1824.04 1825.66 1826.44 1825.94 1825.31 1824.71 1825.22 1827.32 1827.61 1826.27 1825.45 1826.01 1827.24 1827.54 1827.18 1826.52 1825.86 1825.41 1826.85 1827.46 1826.1 1826.09 1825.56 1826.39 1825.47 1826.36 1827.5 1827.07 1826.69 1826.3 1826.17 1826.28 1827.36 1827.8 1829.09 1829.05 1828.74 1829.42 1829.54 1830.16 1827.79 1827.46 1826.96 1826.28 1827.96 1828.69 1829.04 1828.51 1827.63 1827 1827.33 1827.18 1827.46 1826.15 
1821.36 1820.92 1820.7 1820.28 1819.98 1819.55 1819.22 1821.22 1822.63 1824.97 1824.98 1824.2 1823.53 1822.87 1823.63 1826.23 1826.02 1824.64 1825.7 1825.97 1826.48 1825.19 1824.95 1823.44 1824.62 1824.64 1824.43 1824.7 1824.6 1825.07 1825.13 1823.43 1825.14 1826.74 1826.32 1825.34 1825.06 1825.54 1825.35 1826.58 1826.58 1826.95 1827.69 1828.62 1828.25 1827.93 1828.51 1827.07 1826.25 1825.75 1826.41 1826.88 1827.73 1828.2 1826.66 1826.65 1825.67 1825.19 1825.43 1826.05 1824.91 
1821.34 1820.7 1820.44 1820.11 1819.81 1819.36 1819.07 1819.71 1820.45 1823.24 1823.71 1823.55 1823.01 1822.14 1822.9 1825.31 1825.38 1823.7 1824.76 1824.95 1825.62 1824.11 1823.43 1823.19 1824.04 1823.51 1823.56 1823.39 1823.55 1823.64 1823.69 1822.96 1824.8 1825.77 1825.62 1823.6 1824.85 1824.72 1824.95 1826.29 1825.79 1826.43 1827 1827.61 1826.93 1826.02 1826.54 1826.14 1824.77 1824.43 1826.13 1826.7 1827.01 1827.06 1825.97 1826.17 1824.89 1823.31 1823.49 1824.42 1823.68 
1820.61 1820.54 1820.11 1819.76 1819.49 1819.15 1818.84 1818.43 1818.06 1818.48 1819.7 1821.93 1821.88 1821.86 1821.61 1821.63 1822.96 1823.07 1823.22 1823.56 1823.53 1824.44 1822.42 1822.19 1823.57 1822 1821.47 1821.38 1821.8 1822.96 1821.97 1822.8 1824.25 1824.63 1823.81 1822.68 1822.59 1822.82 1824.42 1825.5 1824.47 1825.23 1825.85 1826.07 1825.62 1824.27 1824.63 1824.74 1822.68 1823 1824.16 1824.67 1825.36 1825.75 1825.08 1825.04 1824.06 1822.43 1821.5 1820.63 1821.96 
1819.62 1820.22 1820.12 1819.52 1819.29 1818.96 1818.62 1818.27 1817.94 1817.46 1817.35 1819.64 1819.8 1821.34 1821.19 1821.09 1821.28 1822.04 1822.14 1822.97 1823.47 1824.3 1823.23 1821.11 1821.55 1821.84 1820.8 1820.86 1820.4 1822.05 1821.73 1822.47 1823.04 1823.53 1822.89 1822.05 1820.96 1821.16 1823.42 1825.02 1823.72 1824.48 1825.09 1824.46 1824.28 1823.4 1823.35 1822.86 1821.53 1822.2 1823.01 1823.14 1823.84 1824.5 1824.02 1823.54 1823.17 1821.83 1820.48 1819.66 1820.25 
1819.2 1819.22 1819.24 1819.13 1818.9 1818.54 1818.33 1817.93 1817.58 1817.19 1816.91 1816.39 1816.78 1818.25 1819.53 1820.67 1820.09 1820.27 1820.87 1821.58 1822.01 1821.68 1821.31 1821.09 1820.48 1819.96 1820.47 1820.26 1820.06 1820.58 1821.25 1820.95 1821.98 1822.85 1822.22 1821.17 1820.27 1821.73 1822.04 1822.87 1822.86 1824.2 1823.39 1823.49 1823.23 1822.05 1821.61 1820.5 1821.21 1820.89 1820.93 1821.36 1822 1822.77 1822.68 1822.1 1821.51 1819.96 1818.81 1818.47 1819.02 
1818.78 1818.81 1818.9 1818.71 1818.73 1818.42 1818.01 1817.65 1817.41 1816.99 1816.72 1816.25 1815.87 1816.17 1817.33 1818.57 1819.17 1819.97 1819.89 1820.96 1821.36 1821.54 1820.43 1820.28 1819.71 1819.44 1819.23 1819.45 1819.48 1819.96 1820.68 1820.7 1821.18 1822.09 1821.68 1820.71 1820.48 1820.85 1820.71 1822.03 1821.46 1822.95 1822.47 1823.09 1822.62 1821.83 1821.02 1819.67 1820.84 1819.73 1820.77 1820.12 1820.47 1820.69 1821.36 1821.57 1821.04 1818.28 1817.86 1817.11 1817.82 
1818.11 1817.61 1817.56 1817.47 1817.43 1817.54 1818.42 1817.31 1816.92 1816.65 1816.4 1815.89 1815.69 1815.17 1815.12 1815.8 1815.98 1818.67 1818.98 1819.28 1820.08 1820.57 1819.15 1818.62 1817.94 1817.46 1817.64 1818.54 1818.58 1818.3 1817.73 1818.84 1820.3 1821.5 1821.87 1820.21 1818.36 1818.51 1818.89 1820.4 1818.94 1819.49 1820.89 1821.33 1820.85 1820.16 1819.57 1818.92 1819.08 1817.98 1819.12 1818.56 1818.53 1819.29 1820.09 1819.8 1819.92 1817.8 1815.74 1815 1815.46 
1817.54 1817.58 1817.38 1817.05 1816.73 1816.73 1817.01 1817.27 1817.18 1816.68 1816.3 1815.66 1815.46 1815.01 1814.74 1814.44 1815.15 1816.71 1817.86 1818.41 1818.43 1819.56 1817.68 1816.62 1816.18 1815.78 1816.32 1817.78 1817.56 1816.74 1817.52 1818.52 1820.28 1821.6 1821.67 1819.99 1817.51 1816.86 1817.79 1819.41 1818.18 1819.3 1819.7 1819.83 1819.4 1818.82 1818.43 1818.1 1818.13 1816.72 1817.89 1817.1 1816.73 1818.09 1819.49 1819.31 1818.77 1816.22 1814.19 1814.17 1814.65 
1817.37 1817.21 1817.52 1816.86 1816.6 1816.54 1816.46 1816.36 1816.39 1816.32 1815.82 1815.5 1815.37 1814.9 1814.53 1814.02 1813.79 1813.46 1814.15 1815.4 1816.03 1816.55 1816.15 1814.99 1814.3 1812.71 1814.99 1816.66 1815.93 1815.62 1816.91 1818.19 1819.36 1820.6 1820.36 1819.06 1817.08 1814.57 1816.79 1817.84 1817.09 1816.5 1817.43 1816.7 1817.25 1817.05 1817.05 1816.58 1816.41 1815.8 1816.22 1816.23 1815.12 1817.02 1818.08 1816.97 1816.06 1813.9 1812.47 1812.45 1813.1 
1819.59 1818.23 1819.66 1816.52 1816.36 1816.28 1816.29 1816.13 1815.84 1815.86 1815.51 1815.4 1814.98 1814.73 1814.31 1814.14 1813.52 1813.17 1812.84 1813.81 1814.61 1815.32 1815.07 1813.44 1812.39 1811.77 1813.48 1815.39 1815.25 1815.03 1816.41 1816.56 1817.52 1820.3 1820.44 1818.38 1817.17 1814.06 1816.13 1816.53 1816.09 1815.07 1816.03 1815.54 1815.6 1815.87 1816.24 1815.8 1815.83 1814.51 1814.67 1814.93 1813.57 1815.07 1816.3 1814.94 1813.23 1812.19 1811.24 1811.19 1812.79 
1817.11 1818.17 1819.3 1816.71 1815.42 1815.37 1815.34 1815.76 1815.54 1815.21 1815.07 1814.86 1814.62 1814.37 1813.96 1813.2 1812.99 1812.8 1812.59 1812.23 1812.42 1812.7 1813.32 1812.42 1811.73 1812.35 1813.07 1813.37 1813.82 1814.16 1814.85 1815.28 1814.93 1817.78 1818.56 1815.11 1815.25 1813.55 1814.43 1815.39 1814.35 1813.57 1813.46 1813.01 1813.99 1814.38 1814.3 1814.22 1814.24 1813.14 1812.26 1813.27 1812.27 1812.67 1813.78 1813.25 1810.26 1809.58 1809.61 1809.65 1810.05 
1814.91 1816.92 1817.44 1816.13 1814.77 1814.52 1814.62 1815.64 1815.25 1814.91 1814.89 1814.91 1814.49 1813.71 1813.81 1812.86 1812.65 1812.4 1812.22 1811.99 1811.79 1811.62 1811.62 1811.5 1811.18 1811.74 1812.36 1812.31 1812.68 1813.19 1813.79 1814.46 1813.88 1815.56 1816.04 1814.48 1814.03 1813.41 1813.19 1813.99 1812.94 1812.59 1812.87 1813.2 1813.57 1812.93 1813.36 1813.29 1813.61 1812.68 1812.1 1812.63 1812.01 1812.03 1812.66 1811.84 1810.31 1808.38 1808.62 1807.93 1808.72 
1814.76 1815.83 1816.23 1815.78 1815.76 1814.3 1814.13 1814.9 1815.04 1815.04 1814.85 1814.44 1813.87 1812.92 1813.51 1812 1811.91 1811.84 1811.54 1811.62 1811.29 1811.07 1810.98 1810.66 1810.35 1809.74 1809.79 1809.82 1810.54 1811.63 1812.36 1813.45 1813.27 1813.26 1812.94 1813.1 1812.12 1812.59 1812.44 1812.57 1811.5 1811.27 1811.02 1811.49 1812.3 1811.62 1811.95 1812.02 1812.55 1810.71 1810.83 1810.6 1810.6 1809.55 1809.87 1809.23 1808 1807.03 1806.95 1806.67 1807.19 
1813.89 1815.37 1816.31 1815.03 1815.5 1816.13 1815.1 1815.3 1814.73 1814.26 1814.74 1814.46 1813.86 1813.12 1813.02 1811.01 1810.64 1810.85 1810.69 1810.87 1810.93 1810.79 1810.71 1810.34 1810.02 1808.8 1808.53 1808.45 1809.46 1810.71 1810.59 1811.39 1811.39 1812.93 1812.17 1812.47 1811.56 1812.17 1812.18 1810.45 1810.41 1810.55 1810.08 1811.62 1812.01 1811.57 1811.96 1811.49 1811.75 1810.13 1809.46 1809.88 1810.03 1809.26 1809 1807.38 1806.78 1805.79 1806.03 1805.72 1806.3 
1812.11 1813.4 1814.53 1813.66 1813.74 1815.55 1815.54 1815.04 1814.39 1815.54 1814.37 1813.92 1814.44 1812.98 1811.58 1810.11 1809.24 1809.57 1809.27 1809.32 1809.43 1810.28 1810.18 1810.12 1809.6 1808.96 1807.55 1807.02 1807.63 1808.3 1809.89 1810.49 1809.57 1809.88 1809.62 1810.84 1811.49 1811.37 1810.76 1810.21 1809.82 1809.24 1809.02 1811.31 1811.38 1811.1 1810.13 1808.88 1809.43 1808.8 1808.56 1809.02 1808.59 1807.59 1807.35 1806.65 1804.66 1803.96 1804.96 1804.43 1804.57 
1810.65 1812.44 1813.47 1812.12 1812.47 1814.91 1814.74 1813.61 1813.02 1812.24 1812.71 1813.5 1813.27 1811.84 1810.11 1809.3 1808.57 1808.43 1808.27 1808.04 1808.12 1809.37 1809.76 1809.81 1809.51 1808.17 1807.18 1806.27 1806.64 1808.39 1809.28 1809.35 1808.35 1808.3 1808.26 1809.96 1810.26 1810.19 1809.45 1809.84 1808.6 1808.04 1807.47 1809.52 1810 1811 1809.36 1807.21 1807.48 1807.24 1807.43 1807.34 1806.53 1806.28 1806.79 1806.35 1804.53 1802.69 1803.23 1803.13 1803.81 
1810.2 1811.36 1811.38 1812.27 1812.58 1813.47 1813.1 1813.04 1812.03 1811.59 1811.36 1811.63 1811 1809.77 1809.35 1808.07 1808.03 1807.13 1807.21 1806.57 1806.7 1807.77 1808.88 1809.26 1809.12 1807.66 1806.74 1805 1805.66 1806.86 1808.03 1807.75 1807.26 1806.91 1806.92 1807.63 1808.24 1808.31 1807.98 1808.23 1807.49 1806.12 1805.77 1807.44 1808.09 1808.44 1807.51 1805.73 1805.71 1805.38 1805.08 1804.45 1804.68 1803.61 1804.65 1804.74 1804.46 1802.23 1802.47 1801.81 1803.85 
1808.79 1810.32 1810.54 1810.91 1811.25 1811.69 1810.55 1811.4 1811.42 1811.57 1810.78 1810.26 1809.88 1808.7 1808.31 1808.09 1807.24 1806.32 1806.21 1805.86 1805.43 1806.5 1808.31 1808.79 1808.92 1807.73 1806.35 1804.6 1805.08 1806.01 1806.74 1806.76 1806.59 1805.75 1806.2 1806.83 1807.27 1807.54 1807.44 1806.17 1806.17 1806.1 1805.86 1806.41 1807.56 1806.21 1805.89 1804.53 1804.48 1803.97 1803.9 1803.09 1803.57 1801.72 1803.77 1802.84 1802.12 1802.31 1800.92 1801.32 1803.45 
1806.44 1807.73 1809.05 1809.3 1808.98 1808.44 1809.34 1809.16 1809.1 1808.2 1808.35 1807.9 1807.98 1806.79 1805.76 1806.7 1806.1 1804.83 1804.08 1804.52 1804.26 1804.96 1807.22 1808.23 1808.33 1807.56 1805.83 1804.24 1804.28 1805.3 1805.05 1805.67 1804.94 1804.88 1805 1805.13 1806 1805.69 1805.07 1803.5 1804.81 1804.97 1805.37 1805.86 1805.82 1804.9 1804.16 1803.12 1802.83 1802.22 1801.45 1801.31 1801.3 1800.26 1801.76 1800.7 1799.28 1801.5 1799.75 1800.03 1800.24 
1805.49 1806.58 1808.24 1808.38 1807.25 1806.76 1807.11 1807.28 1807.82 1807.09 1807.29 1806.79 1806.12 1805.29 1804.13 1805.95 1805.48 1803.45 1803.22 1804 1803.71 1804.29 1806.66 1807.91 1808.05 1807.14 1805.23 1804.21 1803.47 1804.08 1804.24 1804.68 1803.51 1805.06 1804.48 1804.63 1805.06 1804.67 1803.77 1802.22 1804.23 1804.29 1805.05 1805.05 1804.83 1803.89 1803.28 1802.16 1801.27 1800.93 1800.08 1800.23 1800.12 1799.55 1800.02 1799.49 1798.22 1800.26 1799.36 1799.06 1799.06 
1803.69 1806.12 1806.76 1805.7 1803.52 1804.58 1805.15 1804.9 1806.05 1805.62 1805.15 1804.87 1804.48 1802.77 1802.03 1804.24 1803.61 1802.76 1802.03 1802.76 1802.7 1804.15 1806.53 1807.2 1807.41 1806.51 1804.56 1803.18 1802.12 1802.76 1803.83 1804.06 1803.42 1804.56 1803.81 1803.38 1803.1 1803.71 1802.12 1801.39 1802.57 1803.57 1803.69 1803.52 1803.01 1801.81 1801.07 1800.47 1799.4 1799.23 1798.55 1797.49 1797.34 1797.58 1797.27 1797.12 1796.81 1797.26 1797.99 1797.37 1797.36 
1802.18 1804.59 1806.01 1804.65 1802.11 1803.16 1803.36 1803.09 1804.21 1804.64 1803.94 1803.35 1803.04 1802.33 1802.46 1803.29 1803.04 1801.39 1801.42 1801.96 1802.4 1804.09 1806.33 1806.82 1807.04 1805.75 1804 1802.66 1801.3 1802.27 1803.11 1803.57 1803.22 1803.64 1803.49 1802.12 1802.16 1802.13 1801.15 1800.88 1801.51 1802.07 1802.64 1801.35 1800.23 1800.3 1799.95 1798.55 1798.72 1797.87 1796.92 1796.27 1796.02 1796.12 1795.34 1796.22 1795.87 1796 1796.9 1796.02 1796 
1800.7 1802.51 1804.23 1803.04 1800.51 1799.62 1801.04 1801.02 1801.66 1803.14 1802.09 1802.24 1801.3 1800.42 1801.87 1801.9 1801.9 1800.72 1800.83 1801.19 1801.63 1804.49 1805.66 1806.36 1806.48 1804.42 1803.06 1801.17 1799.85 1800.78 1802.05 1802.39 1802.15 1802.75 1801.67 1800.84 1801.44 1800.61 1798.82 1798.83 1799.2 1799.98 1800.5 1799.62 1798.26 1799.36 1798.45 1797.79 1797.57 1796.23 1796.19 1795.22 1794.38 1794.1 1795.07 1795.32 1794.83 1794.67 1794.28 1795.04 1795.1 
1800.77 1801.05 1801.88 1801.73 1799.91 1799.04 1799.84 1800.08 1800.44 1801.76 1801.56 1801.7 1800.18 1799.18 1801.01 1800.56 1801.21 1800.2 1800.35 1801.22 1801.93 1805 1805.51 1805.97 1806.2 1803.33 1802.52 1800.31 1799.23 1800.05 1801.46 1801.28 1800.88 1801.09 1800.79 1800.38 1801.3 1799.49 1797.98 1797.31 1797.7 1798.61 1798.56 1798.3 1798.15 1798.29 1797.15 1796.89 1796.28 1795.06 1795.5 1794.12 1793.1 1793.67 1793.96 1794.26 1792.8 1793.72 1793.21 1794.05 1793.92 
1798.43 1797.49 1797.79 1798.96 1798.23 1797.47 1798.67 1798.42 1799.3 1799.59 1799.38 1799.05 1799.29 1799.7 1799.64 1798.56 1799.45 1799.39 1799.57 1801.95 1803.29 1804.79 1805.05 1805.52 1804.61 1801.9 1801.26 1798.39 1797.6 1798.77 1799.66 1798.5 1798.84 1798.86 1799.2 1799.58 1800.03 1797.82 1797.13 1795.7 1796 1796.71 1796.97 1795.64 1796.51 1795.85 1794.88 1794.59 1794.27 1794.27 1793.64 1791.58 1791.72 1791.4 1792.98 1793.82 1793.81 1792.83 1792.34 1791.75 1791.72 
1797.75 1796.78 1796.79 1797.48 1796.48 1796.11 1797.35 1798.14 1798.36 1798.28 1797.84 1797.94 1796.97 1798.39 1797.74 1797.38 1798.52 1798.83 1800.01 1802.61 1803.68 1804.54 1804.81 1804.92 1803.12 1801.3 1800.41 1796.94 1796.38 1797.98 1797.9 1797.28 1797.48 1798.44 1798.09 1799.56 1798.72 1796.84 1796.27 1794.98 1795.14 1794.66 1794.39 1793.87 1795.13 1794.83 1793.8 1794.12 1793.61 1792.5 1793.29 1790.61 1791.07 1790.14 1791.43 1791.97 1792.25 1791.81 1791.47 1790.47 1789.81 
1797.78 1796.75 1796.32 1795.57 1795.41 1795.6 1795.4 1796.71 1796.74 1795.98 1796.23 1796.79 1796.85 1797.14 1797.54 1798.61 1799.73 1800.31 1802.13 1803.24 1803.59 1804.11 1804.16 1802.21 1800.71 1799.7 1797.91 1794.91 1794.45 1794.99 1794.13 1794.89 1795.39 1796.85 1796.99 1796.88 1795.76 1795.08 1794.84 1793.57 1793.51 1791.99 1791.76 1792.2 1792.15 1793.6 1792.6 1792.61 1791.38 1791.27 1791 1790.39 1789.45 1788.5 1789.2 1789.72 1790.1 1790.06 1789.94 1788.98 1787.79 
1797.02 1796.57 1796.5 1796.01 1795.83 1796.26 1796.2 1796.28 1797.57 1796.4 1796.48 1796.76 1797 1797.75 1797.45 1799.87 1800.81 1801.5 1802.52 1803.11 1803.49 1803.74 1803.09 1800.3 1799.99 1798.02 1796.29 1793.59 1793.42 1792.25 1791.58 1793.2 1794.18 1795.16 1795.9 1794.82 1794.67 1794.38 1793.64 1792.31 1791.78 1791.15 1790.97 1791.2 1791.18 1792.41 1792.1 1791.22 1791.09 1790.22 1790.32 1789.96 1788.35 1788.1 1787.78 1788.97 1788.55 1788.98 1789.05 1788.51 1786.41 
1796.68 1796.96 1797.14 1797.33 1797.53 1797.79 1797.96 1798.34 1798.55 1798.91 1799.05 1799.39 1799.63 1800.02 1800.47 1801.07 1801.44 1802.02 1802.39 1802.88 1802.86 1801.16 1799.61 1798.72 1798.02 1795.38 1793.27 1791.26 1791.4 1791.24 1791.29 1791.61 1793.29 1792.7 1793.21 1792.78 1793.69 1793.28 1792.35 1790.41 1789.72 1789.03 1789.6 1789.34 1790.17 1791.16 1790.13 1789.57 1789.25 1788.98 1788.44 1788.87 1787.49 1787.01 1787.11 1787.11 1785.91 1786.84 1787.52 1786.58 1786.58 
1796.58 1796.88 1797.13 1797.4 1797.62 1797.87 1798.15 1798.41 1798.66 1799.01 1799.25 1799.68 1799.83 1800.31 1800.62 1801.1 1801.51 1801.94 1802.23 1801.81 1800.57 1799.32 1798.63 1797.47 1796.28 1793.07 1791.02 1789.85 1789.95 1790.5 1790.72 1790.68 1792.09 1791.82 1791.99 1791.66 1793.05 1792.74 1791.56 1789.49 1788.53 1787.9 1788.51 1787.94 1788.33 1789.12 1789.32 1788.45 1788.6 1788.45 1787.25 1786.57 1786.49 1785.53 1786.56 1784.95 1783.87 1785.58 1785.5 1784.53 1785.58 
1794.88 1795.51 1796.11 1796.4 1796.9 1797.59 1797.91 1798.26 1798.73 1799.08 1799.31 1799.71 1799.96 1800.43 1800.7 1801.01 1801.06 1800.46 1799.82 1798.2 1797.91 1797.59 1796.38 1794.19 1792.52 1789.75 1788.91 1788.06 1788.63 1788.59 1789.64 1789.17 1790.75 1790.95 1791.16 1790.6 1791.04 1790.87 1790.39 1786.91 1786.39 1786.08 1786.12 1786.13 1785.78 1786.85 1787.45 1786.95 1787.52 1787.14 1785.79 1784.22 1784.97 1783.59 1782.86 1780.97 1781.29 1783.11 1784.75 1783.17 1783.1 
