1649.99 1648.48 1647.43 1649.21 1647.36 1644.92 1644.97 1644.29 1643.34 1642.44 1642.09 1639.67 1638.89 1638.37 1637.99 1637.44 1637.26 1635.18 1635.12 1635.24 1635.56 1634.31 1634.17 1634.46 1634.11 1634.36 1633.92 1633.13 1631.65 1630.2 1630.15 1628.64 1628.56 1627.63 1627.46 1626.01 1624.7 1624.72 1624.33 1623.22 1622.67 1621.93 1622.09 1621.23 1619.59 1617.81 1617.26 1617.35 1617.47 1616.31 1615.84 1616.88 1616.87 1615.61 1614.37 1613.96 
1649.51 1649.51 1648.18 1646.69 1645.58 1644.66 1643.56 1643.21 1643.63 1641.81 1640.61 1639.82 1639.63 1638.88 1638.99 1637.39 1636.04 1634.88 1635.03 1636.12 1635.96 1633.61 1633.22 1632.88 1632.53 1633.19 1632.66 1631.75 1632.09 1629.03 1628.95 1628.77 1627.03 1626 1626.04 1625.95 1624.86 1625.21 1625.46 1622.54 1622.38 1622.15 1621.83 1620.95 1619.28 1619.07 1618.47 1616.68 1618 1615.83 1614.68 1614.84 1614.49 1613.56 1612.92 1612.78 
1649.37 1648.83 1647.83 1646.08 1644.03 1642.36 1642.54 1643.03 1642.5 1641.52 1640.8 1640.66 1640.39 1639.26 1638.52 1636.98 1635.26 1634.86 1634.87 1636.68 1634.95 1634.34 1633.73 1632.1 1631.46 1631.75 1632.16 1630.72 1630.67 1629.72 1628.67 1628.47 1627.51 1626.39 1625.55 1625.19 1624.29 1624.37 1624.28 1623.68 1623.9 1622.04 1621.67 1621.36 1620.87 1619.46 1618.71 1617.91 1617.84 1615.16 1614.44 1614.45 1613.94 1614.24 1613.63 1613 
1648.09 1648.45 1646.87 1646.19 1643.61 1640.61 1640.84 1640.87 1639.88 1639.33 1640.41 1640.46 1639.76 1639.19 1638.18 1635.02 1634.61 1634.78 1635.88 1636.16 1633.6 1633.33 1632.3 1631.49 1629.49 1630.44 1630.74 1629.36 1629.41 1629.27 1628.7 1627.54 1626.88 1626.37 1626.07 1624.33 1623.65 1623.55 1622.85 1622.69 1622.87 1621.76 1621.41 1621.01 1620.26 1620.63 1619.79 1617.87 1617.36 1615.59 1613.75 1613.45 1613.58 1613.76 1613.11 1610.01 
1646.26 1646.74 1645.41 1645.29 1643.34 1642.23 1641.2 1639.08 1638.63 1639.16 1639.64 1640.12 1639.76 1638.67 1636.91 1634.49 1634.54 1635.42 1636.69 1634.11 1632.86 1631.52 1631.31 1630.31 1628.73 1629.51 1629.26 1628.29 1628.3 1628.11 1628.24 1626.36 1626.39 1626.1 1625.84 1625.39 1623.76 1622.85 1622.41 1621.75 1623.07 1621.51 1620.96 1620.77 1620.09 1619.89 1618.59 1617.63 1616.79 1615.41 1615.01 1613.7 1612.65 1611.82 1612.39 1610.23 
1646.49 1646.49 1644.45 1644.41 1643.97 1642.57 1641.41 1640.51 1638.67 1638.23 1638 1638.76 1639.02 1637.75 1634.62 1634.46 1634.71 1636.11 1634.56 1632.59 1632.12 1630.7 1630.8 1630.07 1628.94 1627.29 1628.53 1629.39 1628.77 1627.61 1626.99 1626.75 1627.36 1625.93 1625.3 1624.31 1622.26 1621.87 1620.75 1621.3 1621.95 1621.93 1622.08 1620.31 1619.2 1619.14 1618.98 1617.65 1617.17 1615.79 1615.45 1614 1613.61 1611.77 1611.47 1609.98 
1646.7 1647.8 1647.84 1644.65 1643.73 1642.37 1642.01 1640.47 1639.65 1637.78 1637.95 1637.87 1638.32 1635.87 1634.25 1634.49 1635.41 1636.1 1634.78 1631.46 1630.4 1630.47 1629.9 1629.21 1629.43 1628.03 1627.12 1629.01 1629.28 1627.03 1626.81 1627.02 1626.93 1626.36 1624.36 1622.87 1621.7 1621.44 1619.94 1620.57 1620.36 1620.79 1620.91 1620.31 1618.89 1618.75 1618.11 1616.93 1616.27 1615.88 1615.42 1614.51 1613.5 1612.75 1612.92 1611.16 
1646.72 1647.74 1648.02 1645.93 1643.68 1642.84 1642.1 1640.82 1639.8 1639.14 1638.07 1636.33 1636.16 1634.04 1634.21 1634.85 1636.05 1634.22 1633.23 1632.53 1631.11 1630.18 1629.6 1628.96 1628.44 1627.73 1627.86 1626.85 1628.14 1626.94 1626.16 1625.82 1625.77 1625.28 1623.92 1622.64 1621.03 1620.28 1619.25 1619.57 1619.33 1618.78 1619.13 1620.68 1620.1 1617.35 1617.66 1615.88 1615.92 1615.36 1615.3 1614.3 1614.61 1614.33 1612.67 1610.63 
1646.17 1647.52 1647.82 1645.45 1644.22 1643.3 1642.29 1641.34 1640.1 1639.51 1638.31 1637.21 1634.87 1634.02 1634.06 1635.19 1636.04 1632.88 1632 1632.48 1632.59 1631.09 1629.71 1627.43 1627.32 1627.23 1626.75 1625 1625.08 1625.52 1624.97 1623.84 1624.59 1626.07 1624.35 1622.02 1620.71 1620.32 1619.09 1618.27 1619.11 1618.55 1618.58 1619.69 1620.46 1618.36 1617.27 1614.95 1615.21 1614.77 1614.31 1613.53 1614.35 1613.43 1611.61 1609.63 
1646.81 1645.81 1644.73 1645.09 1644.65 1643.25 1642.04 1640.52 1640.27 1638.66 1638.1 1635.26 1633.75 1633.91 1634.44 1635.73 1634.73 1631.83 1630.1 1630.42 1629.58 1630.03 1629.24 1626.95 1625.91 1626.11 1625.04 1623.27 1622.68 1624.1 1623.41 1621.77 1623.15 1624.42 1622.91 1620.87 1621.07 1619.78 1618.94 1617.7 1619.19 1617.08 1616.27 1617.99 1618.93 1617.84 1616.95 1615.78 1615.19 1614.07 1614.1 1612.84 1611.69 1610.99 1609.98 1609.99 
1646.49 1645.5 1644.72 1644.75 1644.31 1642.57 1642.09 1641.3 1639.9 1638.77 1637.76 1633.92 1633.68 1634.06 1634.89 1635.6 1634.3 1632.01 1630.81 1629.59 1627.84 1628.03 1628.53 1627.48 1626.84 1625.3 1624.16 1622.67 1621.47 1622.95 1622.68 1620.63 1621.41 1622.06 1621.72 1620.2 1620.4 1619.55 1618.21 1616.97 1617.53 1616.74 1615.24 1616.59 1617.73 1617.32 1616.44 1615.67 1615 1614.18 1613.58 1611.86 1611.01 1609.9 1609.15 1608.63 
1647.78 1644.95 1645.3 1645.2 1643.3 1642.22 1641.14 1639.75 1640.01 1638.5 1634.33 1633.54 1633.44 1634.91 1635.77 1635.14 1632.35 1631.46 1630.16 1628.33 1627.72 1625.98 1626.1 1627.38 1626.92 1625.15 1622.89 1622.19 1620.5 1621.23 1621.37 1619.36 1620.55 1621.7 1620.64 1620.16 1618.37 1618.81 1617.62 1616.83 1616.84 1617.28 1615.05 1613.9 1613.61 1614.83 1616.21 1614.93 1613.96 1613.35 1612.88 1611.56 1609.81 1608.37 1608.14 1607.92 
1646.1 1646.22 1646.34 1644.8 1643.47 1641.43 1639.96 1639.2 1639.32 1634.41 1633.25 1633.33 1633.8 1635.91 1635.8 1634.07 1631.86 1630.96 1629.8 1628.36 1627.42 1625.02 1625.02 1626.49 1626.1 1624.74 1622.62 1622.07 1620.26 1620.62 1621.11 1620.06 1620.14 1621.09 1620.11 1619.33 1617.86 1618.58 1618.33 1617.91 1617.11 1616.76 1615.3 1613.8 1613.87 1612.75 1614.37 1613.92 1613.66 1611.45 1612.1 1610.43 1609.84 1608.22 1607.63 1606.43 
1646.9 1645.39 1644.5 1643.15 1642.9 1639.86 1639.28 1638.12 1636.63 1633.12 1633.14 1633.42 1634.48 1635.55 1635.3 1632.5 1632.4 1629.89 1629.13 1627.05 1626.8 1624.35 1624.43 1625.68 1624.93 1624.57 1622.09 1621.24 1620.55 1620.75 1620.83 1619.49 1619.91 1620.15 1618.47 1617.96 1618.69 1617.17 1616.96 1617.81 1617.48 1616.28 1615.58 1613.2 1612.46 1611.76 1612.54 1612.57 1611.6 1609.86 1610.12 1610.12 1609.43 1608.25 1606.7 1604.68 
1645.57 1643.89 1643.58 1641.85 1641.61 1640.11 1638.43 1636.08 1634.92 1632.92 1632.99 1633.25 1635.48 1636.13 1635.35 1631.72 1630.94 1629.29 1627.75 1627.05 1624.71 1624.03 1623.38 1625.08 1624.69 1623.68 1622.75 1619.82 1619.21 1619.77 1620.75 1618.97 1619.44 1619.86 1617.61 1615.57 1616.78 1616.94 1616.03 1617.27 1616.39 1615.65 1614.47 1612.11 1611.78 1611.3 1611.93 1611.79 1611.91 1610.83 1609.33 1610.33 1608.95 1607.72 1606.87 1604.32 
1643.78 1642.79 1643.15 1640.7 1640.55 1638.47 1637.04 1634.14 1632.71 1632.91 1633.02 1635.08 1635.54 1636.21 1633.5 1629.76 1629.16 1628.55 1626.96 1626.3 1625.27 1623.27 1621.7 1621.41 1622.51 1622.66 1621.94 1620.04 1618.49 1617.34 1618.25 1617.79 1618.83 1617.96 1617 1615.48 1614.91 1615.57 1614.34 1615.94 1615.46 1614.59 1614.13 1611.42 1610.5 1609.29 1610 1610.89 1610.46 1611.11 1610.25 1609.57 1609.01 1607.62 1607.29 1603.98 
1642.56 1641.81 1642.24 1640.58 1640.61 1637.23 1634.8 1632.89 1632.54 1632.67 1633.55 1635.25 1635.85 1634.32 1632.16 1629.66 1628.69 1628.09 1627.63 1626.07 1625.31 1622.4 1620.87 1619.46 1620.67 1621.56 1621.05 1620.18 1618.26 1616.34 1616.83 1618.23 1618.51 1618.04 1616.62 1616.7 1614.93 1614.8 1613.77 1614.76 1614.85 1614.02 1613.51 1611.41 1610.51 1608.27 1608.9 1608.79 1609.75 1609.21 1609.72 1608.98 1608.74 1607 1606.57 1605.03 
1640.87 1639.44 1639.42 1639.02 1638.63 1634.35 1632.44 1632.28 1632.44 1633.09 1634.89 1635.57 1635.33 1632.46 1631.41 1630.12 1629.7 1628.24 1626.53 1624.37 1623.34 1622.4 1620.46 1619.67 1620.11 1621.49 1620.94 1620.51 1619.73 1616.57 1616.96 1618.59 1618.45 1617.92 1617.03 1616.69 1614.85 1613.58 1612.79 1612.03 1613.81 1612.24 1611.97 1610.97 1610.77 1608.11 1607.73 1608 1608.88 1607.66 1608.06 1608.06 1607.76 1607.18 1605.45 1605.18 
1641.87 1638.91 1638.74 1638.55 1637 1632.23 1631.86 1632.17 1632.27 1633.84 1634.79 1635.61 1633.45 1631.18 1631.17 1629.6 1628.15 1628.46 1627.68 1625.44 1624.42 1622.45 1621.66 1620.26 1619.47 1620.48 1621.16 1620.12 1618.87 1617.8 1616.48 1618.26 1618.37 1618.06 1616.83 1616.79 1614.29 1613.25 1613.14 1611.58 1612.49 1612.49 1611.92 1610.39 1609.99 1609.22 1607.41 1607.6 1607.51 1607.29 1607.35 1607.42 1607.95 1607.22 1605.71 1604.65 
1641.72 1639.39 1638.71 1635.36 1632.25 1631.82 1631.81 1631.97 1633.01 1634.55 1635.07 1632.47 1631.21 1628.68 1628.19 1628.56 1628.87 1626.4 1626.16 1625.69 1624.88 1622.98 1621.62 1619.98 1619.15 1617.83 1618.83 1619.08 1618.67 1617.88 1617.49 1616.37 1616.56 1617.69 1616.65 1615.6 1615.97 1614.07 1613.01 1611.52 1611.19 1612.29 1610.38 1609.31 1609.22 1607.5 1606.06 1606.44 1605.72 1604.87 1605.75 1606.83 1606.04 1606.45 1606.71 1605.5 
1640.56 1638.75 1638.07 1632.46 1631.92 1631.51 1631.79 1632.1 1633.82 1634.45 1634.24 1632.42 1630.53 1627.74 1626.55 1627.03 1626.96 1626.07 1624.85 1624.5 1623.92 1622.15 1621.05 1619.46 1619.22 1617.26 1615.99 1618.25 1618.31 1617.63 1617.23 1616.14 1615.44 1616.4 1616.02 1613.82 1613.56 1613.26 1612.85 1610.63 1611.62 1611.71 1609.41 1609.45 1608.75 1607.22 1607.08 1605.76 1605.38 1604.12 1605.08 1606.38 1606.29 1605.39 1607.13 1605.85 
1638.55 1637.65 1634.57 1631.33 1631.14 1631.4 1631.51 1632.43 1633.48 1634.94 1632.6 1630.12 1629.84 1626.49 1625.55 1625.16 1625.38 1622.97 1624.18 1623.92 1621.72 1620.63 1621.01 1620.37 1618.59 1616.93 1615.71 1614.71 1615.95 1617.74 1617.29 1616.53 1615.48 1615.41 1614.79 1614.13 1612.38 1612.48 1611.29 1610.54 1610.48 1609.93 1608.94 1608.57 1606.89 1604.83 1604.5 1603.97 1603.92 1604.25 1604.93 1605.6 1605.11 1604.97 1604.43 1603.42 
1637.91 1635.5 1631.99 1630.94 1630.99 1631.25 1631.54 1633.32 1634.14 1634.22 1631.25 1630.01 1628.64 1626.05 1626.03 1624.85 1624.47 1622.92 1623.53 1621.59 1620.7 1619.88 1619 1619.61 1618.9 1616.59 1614.63 1614.08 1613.65 1615.82 1616.43 1616.03 1615.42 1614.51 1614.81 1614.05 1611.58 1610.79 1610.47 1609.45 1609.34 1608.36 1607.09 1608.03 1607.66 1604.26 1604.43 1603.58 1603.43 1603.56 1603.49 1605.02 1604.51 1603.53 1603.67 1602.84 
1634.74 1631.2 1630.72 1630.54 1630.83 1631.6 1632.4 1632.61 1632.87 1632.67 1629.9 1628.71 1627.75 1626.23 1625.44 1624.34 1623 1622.44 1621.54 1620.8 1619.6 1618.79 1617.93 1616.97 1616.28 1614.15 1613.82 1612.69 1611.91 1612.33 1613.16 1614.22 1614.24 1613.74 1613.26 1613.48 1612.2 1609.43 1608.87 1609.01 1607.16 1607.35 1606.96 1605.47 1605.65 1604.82 1603.53 1603.18 1602.56 1602.3 1602.32 1604.07 1603.99 1603.58 1601.94 1603.09 
1632 1630.02 1629.97 1630.43 1630.67 1631.65 1632.4 1632 1631.48 1631.11 1628.38 1628.16 1627.56 1626.01 1625.38 1623.36 1622.01 1621.83 1621.19 1619.26 1618.45 1617.15 1615.67 1616.62 1615.99 1613.85 1613.1 1612.24 1611.73 1610.75 1611.35 1613.19 1613.48 1613.37 1612.24 1612.23 1611.27 1608.79 1608.17 1608.99 1607.8 1607.05 1606.19 1604.76 1604.02 1603.88 1602.92 1602.14 1601.42 1601.39 1601.41 1603.62 1603.44 1602.85 1601.92 1603.26 
1629.87 1629.67 1629.9 1630.21 1630.51 1630.68 1630.75 1630.9 1630.42 1629.85 1627.69 1625.41 1625.05 1623.82 1623.75 1622.89 1622.36 1621.64 1620.68 1620.02 1617.85 1615.03 1613.09 1613.04 1613.79 1612.98 1612.92 1612 1611.45 1610.59 1609.29 1609.95 1611.14 1612.06 1611.18 1610.78 1609.91 1608.41 1607.92 1607.36 1608.06 1606.1 1605.67 1603.66 1602.52 1602 1602.2 1601.32 1599.86 1600.06 1600.7 1602.93 1603.33 1601.15 1600.82 1602.25 
1629.14 1629.53 1629.84 1630.11 1630.29 1630.39 1630.29 1630.19 1629.98 1629.34 1627.07 1625.06 1624.71 1623.65 1623.17 1622.46 1621.88 1621.15 1620.84 1618.57 1616.79 1615.26 1613.35 1612.48 1612.4 1611.77 1611.69 1611.58 1610.9 1610.49 1609.69 1608.64 1609.35 1611.23 1611.03 1610.17 1608.67 1608.07 1607.56 1607.05 1607.02 1605.96 1605.29 1603.48 1602.7 1600.89 1602 1600.07 1599.76 1599.54 1600.47 1601.87 1602.88 1601.99 1601.18 1600.69 
1628.87 1629.32 1629.62 1629.88 1630.06 1630.05 1629.92 1629.78 1629.63 1628.45 1625.06 1623.07 1622.98 1623.67 1622.71 1622.11 1621.8 1620.66 1619.19 1619.05 1617.97 1615.71 1614.19 1613.47 1613.11 1611.81 1611.44 1613.48 1613.04 1609.91 1609.36 1607.75 1608.03 1609.71 1609.58 1608.74 1609.56 1607.29 1607.14 1606.21 1604.84 1604.54 1605.09 1603.81 1602.67 1599.59 1600.92 1599.78 1599.38 1600.16 1600.3 1600.16 1601.99 1601.87 1601.59 1600.31 
1628.89 1629.25 1629.53 1630.73 1630.25 1629.85 1629.72 1629.67 1629.49 1626.75 1624.09 1621.97 1622.05 1622.65 1622.13 1621.67 1621.09 1620.85 1619.31 1618.6 1617.52 1617.05 1615.51 1614.21 1613.87 1611.7 1611.11 1612.25 1612.69 1610.68 1609.36 1607.98 1606.99 1608.58 1608.84 1608.42 1608.17 1606.85 1605.94 1604.51 1603.92 1603.51 1603.63 1603.09 1602.57 1600.27 1600.38 1599.48 1598.58 1599.44 1599.81 1600.11 1601.2 1600.84 1600.59 1598.38 
1628.6 1629.3 1630.75 1630.97 1629.53 1629.71 1629.4 1629.35 1629.21 1624.49 1622.51 1620.81 1620.59 1620.4 1620.08 1620.1 1621.04 1620.34 1619.51 1618.61 1617.12 1614.59 1614.07 1613.99 1613.17 1612.5 1611.84 1609.57 1609.87 1610.41 1609.35 1607.05 1606.03 1605.67 1607.25 1607.02 1606.14 1605.47 1604.73 1602.93 1602.43 1602.38 1602.65 1601.7 1601.64 1601.64 1601.53 1600.69 1599.17 1598.18 1597.64 1600.3 1599.86 1599.99 1598.76 1597.14 
1628.54 1629.89 1632.16 1629.97 1629.35 1629.41 1629.13 1629.14 1628.62 1623.15 1621.48 1619.78 1619.79 1618.43 1618.83 1618.5 1619.24 1620.26 1619.91 1619.06 1617.11 1614.79 1613.37 1612.48 1611.96 1610.31 1610.34 1609.2 1609.06 1610.14 1609.6 1607.53 1606.41 1604.94 1605.38 1606.25 1606.35 1604.34 1603.86 1602.5 1601.56 1602.45 1602.42 1600.15 1600.01 1600.1 1600.86 1600.88 1600.11 1597.9 1597.6 1599.82 1599.18 1599.35 1598.27 1596.8 
1628.63 1631.59 1632.02 1629.73 1628.92 1628.93 1629.03 1628.33 1626.92 1622.89 1619.78 1618.65 1618.57 1618.59 1617.18 1617.78 1617.6 1616.16 1616.32 1616.5 1615.68 1613.99 1613.36 1611.07 1610.57 1609.55 1608.1 1608.03 1608.22 1608.35 1608.21 1606.88 1606.45 1605.52 1604.14 1605.13 1605.38 1604.16 1603.81 1603.25 1602.3 1602.06 1601.05 1600.1 1599.55 1599.3 1598.97 1599.91 1599.15 1599.15 1597.74 1597.46 1596.78 1597.07 1595.7 1596.75 
1629.86 1632.52 1630.41 1628.78 1628.98 1628.84 1628.08 1626.44 1624.95 1621.99 1618.91 1618.04 1617.74 1617.44 1616.52 1616.05 1616.14 1616.12 1616.51 1615.12 1614.76 1613.2 1612.54 1611.67 1609.9 1609.56 1608.7 1607.53 1608.09 1607.15 1606.72 1606.46 1605.61 1604.85 1604.16 1603.62 1604.11 1604.79 1603.89 1602.81 1602.05 1601.07 1600.58 1599.95 1599.36 1598.69 1598.32 1599.14 1598.76 1598.1 1596.49 1596.94 1595.86 1596.09 1596.18 1595.15 
1631.42 1631.51 1629.18 1628.38 1627.07 1626.17 1625.27 1622.18 1621.9 1620.13 1618.84 1617.57 1617.69 1616.66 1615.94 1615.02 1615.41 1615.48 1615.37 1614.22 1613.49 1613.24 1611.16 1609.45 1609.98 1608.54 1608.8 1607.14 1606.38 1606.5 1605.78 1606.04 1605.62 1604.1 1603.84 1602.54 1602.86 1604.18 1604.25 1602.15 1600.97 1600.25 1599.51 1598.32 1598.25 1597.37 1597.2 1597.09 1598.15 1597.29 1596.95 1595.22 1594.99 1595.1 1594.49 1593.75 
1631.68 1629.37 1627.64 1625.37 1623.94 1622.91 1622.58 1620.49 1620.64 1620.51 1619.56 1618.41 1617.85 1616.15 1615.4 1614.68 1615.18 1614.91 1613.64 1612.18 1612.77 1612.4 1611.09 1608.38 1608.92 1608.18 1607.16 1606.74 1605.93 1606.16 1604.86 1604.56 1604.36 1604.43 1603.87 1601.77 1602.15 1603.03 1603.48 1601.79 1601.03 1600.23 1599.17 1597.6 1596.96 1596.43 1596.8 1597.4 1598.02 1595.91 1596.93 1595.14 1594.15 1594.76 1593.51 1593.02 
1630.34 1627.82 1625.61 1622.99 1622.19 1620.82 1619.96 1619.34 1619.64 1619.43 1619.05 1618.49 1617.59 1616.28 1614.87 1614.06 1613.52 1615.1 1612.8 1611.49 1611.05 1610.18 1609.48 1608.11 1606.11 1606.95 1606.11 1605.29 1605.61 1605.32 1604.83 1605 1603.39 1603.47 1602.89 1601.94 1601.29 1600.87 1600.81 1601.22 1600.87 1601.01 1600.02 1599.23 1598.83 1596.81 1596.33 1595.85 1597.15 1594.89 1595.73 1594.51 1594.28 1593.68 1593.41 1591.32 
1630.97 1629.21 1626.69 1623.52 1621.74 1620.87 1619.41 1617.55 1618.74 1618.32 1618.89 1616.73 1617.02 1615.02 1614 1613.6 1613.74 1611.75 1612.02 1610.58 1609.42 1609.26 1608.68 1607.71 1605.87 1606.09 1605.91 1604.66 1605.42 1604.67 1604.37 1604.46 1603.89 1602.06 1601.68 1600.77 1600.69 1599.94 1599.77 1600.39 1599.03 1599.81 1599.47 1598.84 1598.52 1597.77 1597.43 1595.98 1596.37 1594.99 1593.96 1594.2 1594.12 1592.37 1592.82 1590.56 
1630.64 1630.52 1628.05 1623.6 1621.48 1619.74 1618.35 1616.58 1618.57 1617.98 1617 1615.7 1614.98 1614.05 1612.96 1611.83 1613.9 1614.08 1613.16 1611.19 1609.63 1608.62 1608.22 1607.14 1605.81 1605.41 1605.56 1605.2 1604.21 1604.4 1603.94 1603.46 1603.49 1600.43 1599.95 1598.74 1598.14 1598.7 1599.39 1598.7 1598.45 1597.36 1597.91 1597.22 1596.6 1597.33 1597.49 1596 1595.07 1593.29 1592.81 1593.25 1592.37 1591.27 1591.39 1592.13 
1629.68 1629.59 1626.82 1622.96 1621.16 1620.05 1618.85 1615.98 1617.8 1616.15 1615.61 1615.01 1614.68 1613.42 1611.8 1610.78 1611.93 1611.99 1612.11 1610.31 1609.8 1608.06 1607 1606.55 1606.18 1605.18 1604.86 1605.49 1604.93 1603.78 1603.64 1603.03 1603.1 1599.54 1598.82 1598.51 1597.6 1598.8 1598.83 1598 1597.88 1596.96 1597.05 1596.88 1595.54 1596.18 1597.1 1596.67 1594.55 1594.07 1592.46 1591.67 1591.14 1591.09 1590.93 1592.31 
1626.94 1625.28 1623.74 1620.39 1620.86 1617.97 1618.08 1616.78 1616.76 1615.43 1614.18 1613.47 1613.79 1613.04 1613.03 1611.76 1610.14 1609.87 1610.01 1608.01 1607.96 1606.98 1606.48 1604.99 1606.18 1604.86 1603.83 1605.28 1605.22 1603.18 1602.68 1601.89 1601.67 1600.29 1599.18 1597.48 1596.91 1596.65 1597.13 1597.13 1596.37 1596.19 1595.48 1595.17 1594.43 1593.98 1594.91 1595.78 1593.78 1593.72 1592.87 1590.96 1589.52 1589.78 1589.23 1591.27 
1624.19 1622.66 1621.2 1619.2 1619.7 1618.16 1617.78 1616.81 1616.31 1614.31 1612.72 1612.22 1611.81 1612.1 1611.62 1611.48 1610.39 1608.76 1608.5 1606.27 1606.33 1607.1 1605.96 1604.23 1604.68 1604.44 1603.37 1604.95 1605.03 1603.93 1602.18 1601.57 1600.91 1600.44 1599.36 1596.96 1596.2 1596 1596.43 1596.15 1595.34 1595.18 1594.75 1593.66 1593.3 1592.25 1593.39 1594.81 1593.09 1592.32 1592.77 1591.07 1589.27 1588.78 1588.51 1590.97 
1622.11 1620.5 1618.74 1618.78 1617.87 1617.31 1616.67 1614.98 1613.72 1613.13 1612.39 1612.37 1611.66 1610.97 1610.44 1609.79 1609.53 1608.51 1608 1605.79 1605.84 1605.16 1604.46 1603.09 1602.23 1602.68 1602.57 1603.91 1604.27 1603.61 1603.06 1601.75 1600.87 1599.87 1598.79 1595.9 1594.68 1594.69 1594.41 1593.95 1593.52 1591.54 1591.92 1591.9 1591.36 1590.33 1591.72 1594.85 1593.94 1592.21 1592.46 1590.36 1590.11 1589.16 1589.34 1590.02 
1622.04 1619.72 1618.07 1616.57 1616.13 1615.57 1615.77 1614.32 1614.21 1613.04 1612.23 1610.97 1610.77 1609.83 1608.73 1607.93 1608.58 1607.59 1607.51 1605.93 1605.37 1604.61 1602.43 1602.02 1600.95 1600.84 1602.93 1603.72 1603.35 1603.11 1603.29 1601.62 1600.83 1599.22 1598.12 1595.7 1594.75 1594.13 1592.29 1593.4 1593.09 1592.36 1591.26 1590.74 1590.5 1589.32 1590.79 1593.86 1593.65 1592.67 1592 1590.12 1589.86 1589.34 1589.68 1590.51 
1621.71 1619.9 1617.77 1615.59 1614.47 1614.15 1613.43 1613.59 1612.62 1611.91 1610.66 1610.13 1608.94 1607.62 1607.43 1607.16 1607.88 1605.85 1605.52 1604.67 1604.27 1603.61 1602.03 1600.51 1599.58 1600.45 1601.42 1602.49 1603.01 1602.77 1602.9 1600.47 1600.11 1599.38 1598.96 1596.42 1595.89 1593.17 1591.28 1591.97 1591.78 1591.62 1591.61 1589.46 1588.82 1588.33 1590.4 1592.51 1592.08 1592.92 1591.4 1589.51 1589.03 1587.16 1587.64 1590.33 
1620.46 1620.07 1619.05 1617.41 1616.4 1613.88 1612.87 1613.52 1611.91 1611.64 1609.62 1609.14 1608.71 1607.08 1605.94 1606.63 1606.32 1605.3 1603.99 1603.87 1602.73 1602.2 1601.66 1600.05 1599.84 1598.4 1599.8 1601.81 1602.82 1602.65 1602.5 1600.49 1599.52 1598.12 1597.6 1597.21 1596.28 1593.42 1591.82 1591.23 1591.5 1591.35 1590.89 1589.64 1587.9 1588.98 1589.93 1591.87 1591.33 1592.54 1591.89 1589.6 1588.69 1586.48 1586.87 1588.3 
1618.63 1619.74 1619.26 1618.14 1616.94 1616.4 1615.42 1613.07 1611.99 1609.71 1608.94 1608.07 1607.61 1605.48 1604.97 1606.03 1604.94 1604.54 1603.88 1602.62 1601.98 1600.46 1600.17 1599.62 1598.82 1597.47 1598.7 1600.74 1601.09 1600.58 1601.04 1600.06 1598.67 1596.7 1595.84 1595.76 1596.62 1594.52 1592.18 1590.66 1590.09 1590.06 1590.07 1589.23 1588.9 1589.35 1589.62 1590.06 1590.3 1591.32 1590.17 1589.09 1588.65 1585.81 1585.87 1585.6 
1616.43 1617.88 1617.88 1617.69 1617.02 1615.56 1615.29 1614.55 1612.21 1608.7 1608.84 1607.44 1607.81 1605.92 1604.2 1605.45 1605.05 1604.6 1604.01 1602.24 1601.01 1600.16 1598.68 1599.91 1599.4 1598.61 1597.93 1599.76 1599.6 1599.98 1600.56 1598.64 1597.59 1595.85 1595.96 1594.19 1595.13 1593.89 1592.71 1591.39 1590.02 1588.68 1587.88 1588.7 1588.25 1588.94 1589.57 1588.91 1589.82 1590.59 1589.8 1588.19 1587.12 1585.83 1584.44 1585.07 
1614.45 1614.41 1615.82 1616.09 1615.29 1615.03 1614.36 1614.02 1612.9 1609.66 1606.97 1606.43 1606.89 1606.34 1604.38 1604.79 1603.64 1604.39 1602.82 1600.16 1599.09 1599.14 1598.73 1597.88 1597.53 1596.55 1595.09 1597.55 1597.66 1597.99 1597.24 1597.96 1596.77 1595.27 1592.99 1592.71 1593.66 1592.54 1592.21 1592.14 1591.27 1589.74 1588.71 1587.58 1587.81 1587.71 1587.8 1588.64 1588.65 1590.24 1590.26 1586.13 1586.62 1585.79 1584.74 1584.99 
1614.49 1613.7 1613.81 1614.26 1614.17 1613.26 1613.54 1613.27 1611.65 1608.65 1606.59 1606.18 1606.77 1605.14 1604.66 1604.37 1602.97 1602.71 1601.3 1599.55 1599.41 1598.49 1597.98 1596.82 1596.52 1595.26 1593.97 1596.4 1596.7 1595.25 1594.74 1595.98 1595.96 1593.51 1591.54 1590.9 1592.67 1591.53 1591.74 1591.89 1591.45 1589.76 1589.12 1587.92 1587.25 1587.18 1587.13 1587.67 1587.8 1589.11 1588.98 1585.1 1585.65 1585.67 1584.5 1583.53 
1613.02 1612.35 1611.29 1611.48 1610.95 1610.61 1608.69 1609.68 1609.32 1608.33 1606.98 1604.87 1604.67 1603.31 1603.46 1603.41 1601.98 1601.06 1600.35 1599.25 1598.4 1597.74 1597.24 1595.37 1595.27 1593.43 1593.05 1594.9 1595.25 1593.01 1592.11 1593.05 1594.14 1592.97 1591.05 1590.19 1590.87 1592.33 1591.27 1590.64 1590.7 1589.23 1588.88 1587.96 1588.03 1586.02 1586.66 1586.57 1586.71 1587.46 1586.96 1585.31 1585.22 1584.3 1583.68 1583.15 
1611.97 1611.56 1610.26 1609.72 1608.34 1608.47 1607.65 1607.39 1607.67 1606.51 1607.61 1605.9 1605.45 1603.04 1602.79 1602.9 1601.08 1600.44 1599.7 1599.06 1597.99 1597.39 1596.63 1594.85 1594.78 1592.74 1592.33 1594.41 1594.39 1592.15 1592.05 1591.99 1592.29 1592.43 1590.71 1589.04 1590.34 1590.62 1590.14 1589.78 1589.54 1589.04 1587.85 1585.46 1586.63 1586.07 1585.79 1585.99 1585.87 1587 1586.36 1585.58 1584.36 1582.48 1582.43 1581.13 
1611.2 1609.59 1608.38 1607.63 1607.79 1607.16 1606.72 1606.06 1606.13 1605.6 1605.88 1605.11 1604.87 1602.92 1602.92 1602.57 1601.45 1600.15 1599.97 1599.95 1598.94 1597.94 1596.64 1594.82 1594.4 1593.43 1592.21 1593.08 1592.95 1590.4 1590.74 1589.66 1589.47 1591.33 1589.67 1589.09 1588.74 1589.2 1589.03 1587.81 1587.18 1587.44 1586.54 1584.97 1585.41 1586.09 1585.91 1584.49 1585.24 1585.9 1585.93 1584.62 1584.19 1580.91 1579.48 1579.98 
1610.52 1608.46 1607.03 1605.52 1606.78 1605.81 1605.91 1604.97 1604.78 1605.19 1605.22 1604.28 1604.08 1602.86 1602.53 1601.59 1600.47 1599.93 1599.21 1598.13 1598.93 1598.07 1596.67 1594.31 1593.62 1591.97 1591.05 1591.76 1591.97 1590.41 1589.21 1587.45 1589.28 1591.09 1590.04 1588.17 1588.14 1587.62 1587.97 1587.03 1585.98 1585.78 1585.75 1584.6 1583.75 1585.79 1585.42 1583.8 1584.15 1584.87 1584.97 1583.99 1583.36 1581.72 1580.91 1579.78 
