1565.92 1565.3 1564.03 1562.53 1559.89 1558.72 1559.41 1558.63 1556.97 1555.84 1557.01 1557.48 1557.67 1557.32 1555.64 1554.93 1553.13 1552.18 1551.7 1551.14 1550.15 1549.69 1548.83 1548.38 1548.9 1548.95 1548.77 1548.91 1548.86 1548.35 1546.43 1544.58 1542.9 1542.2 1541.48 1540.52 1541.05 1540.94 1540.72 1540.74 1541.03 1541.37 1541.66 1541.4 1539.64 1538.98 1538.5 1538.28 1537.54 1536.6 1535.99 1534.42 1533.12 1532.19 1532.43 1533.2 1533.89 1533.6 1532.4 1531.63 1530.85 1530.79 1530.2 1529.78 1529.14 1528.98 1527.56 1526.91 1526.34 1525.4 1524.72 1524.77 1524.15 1523.55 1522 1522.02 1521.8 1521.95 1520.76 1520.26 1519.91 1519.35 1518.55 1518.8 1518.19 1516.91 1515.56 1515.01 1514.12 1514.19 1512.81 1511.71 1511.11 1510.66 1510.18 1509.59 1508.4 1507.72
1566.66 1565.78 1564.09 1562.87 1560.6 1558.91 1558.21 1557.32 1556.07 1555.22 1555.72 1556.07 1556.49 1555.89 1554.19 1552.93 1552.63 1552.22 1551.64 1550.77 1549.25 1548.64 1548.12 1547.93 1548.22 1548.62 1548.48 1548.49 1548.19 1547.79 1545.32 1543.96 1543.02 1542.47 1541.78 1541.33 1540.85 1540.86 1540.69 1540.73 1540.94 1541.32 1541.43 1540.8 1539.83 1539.52 1539.02 1538.87 1538.03 1537.2 1535.56 1533.83 1532.74 1532.86 1533.51 1534.62 1535.57 1533.92 1532.67 1531.97 1531.42 1530.79 1530.18 1529.77 1528.89 1528.35 1527.55 1526.85 1525.99 1525.37 1524.14 1524.4 1522.75 1521.9 1521.09 1520.7 1520.88 1521.07 1521.05 1519.78 1518.81 1517.96 1517.16 1518.15 1517.14 1516.11 1515.32 1515.31 1514.21 1514.26 1513.56 1512.67 1511.64 1511.21 1510.44 1508.77 1508.61 1507.7
1566.48 1565.68 1564.2 1563.64 1561.89 1560.4 1557.67 1556.35 1555.05 1554.96 1554.67 1553.82 1553.97 1553.97 1554.62 1552.25 1551.01 1550.92 1550.33 1549.32 1548.65 1548.53 1547.4 1546.53 1547.14 1548.27 1547.24 1546.58 1546.26 1545.64 1544.6 1544.03 1543.02 1542.37 1541.57 1541.62 1540.9 1540.65 1540.43 1540.24 1540.23 1540.27 1539.97 1539.83 1538.81 1538.92 1538.39 1538.1 1537.71 1536.36 1534.45 1534.59 1535.29 1535.29 1535.51 1535.77 1535.03 1534.62 1533.32 1532.66 1531.78 1531.3 1529.67 1529.17 1527.95 1527.47 1527.12 1526.7 1526.09 1525.43 1524.39 1523.36 1523.26 1523.87 1522.62 1521.52 1520.11 1519.49 1518.44 1517.34 1515.91 1515.42 1514.63 1514.8 1514.18 1514.01 1513.31 1513.23 1512.78 1512.96 1512.16 1511.4 1510.27 1508.9 1507.6 1506.85 1504.4 1503.63
1565.84 1565.07 1564.03 1563.46 1562.73 1561.48 1559.6 1558.39 1556.8 1556.04 1555.64 1555.28 1553.74 1552.6 1551.93 1550.83 1551.02 1550.31 1550.09 1549.85 1550.16 1550.07 1548.47 1547.28 1546.13 1548.15 1547.29 1545.71 1544.85 1544.96 1544.74 1543.73 1542.12 1541.65 1541.32 1541.2 1540.73 1540.48 1540.3 1540.08 1539.93 1539.8 1539.19 1539.11 1538.22 1538.21 1537.93 1537.26 1537.03 1536.78 1535.53 1535.92 1536.04 1535.98 1535.53 1535.28 1534.57 1534.36 1533.53 1533.01 1532.5 1531.67 1530.08 1529.33 1528.21 1527.62 1526.94 1526.71 1526.23 1525.84 1525.49 1524.95 1524.58 1524.34 1523.29 1522.19 1520.71 1519.7 1518.93 1518.03 1517.79 1517.13 1515.75 1514.81 1513.43 1513.28 1512.77 1512.6 1511.77 1511.09 1509.9 1509.53 1508.67 1508.4 1507.78 1506.88 1504.38 1504.07
1565.62 1564.97 1563.78 1563.29 1562.27 1561.87 1561 1560.27 1558.77 1558.42 1556.93 1556.25 1555.46 1554.28 1552.42 1552.11 1552.26 1552.23 1552.66 1552.38 1552.05 1551.44 1549.95 1549.02 1547.56 1547.71 1545.36 1545.02 1544.49 1543.72 1543.47 1542.54 1542.02 1541.59 1541.3 1541.07 1540.55 1540.25 1540.39 1539.91 1539.51 1539.42 1539.06 1539.12 1538.69 1538.28 1538.04 1537.84 1537.52 1537.18 1536.9 1536.7 1536.33 1536.02 1535.88 1535.69 1534.46 1534.01 1533.34 1532.81 1532.85 1531.65 1530.31 1530.03 1528.76 1528.03 1527.15 1526.77 1526.35 1526.05 1525.61 1525.31 1524.62 1524.27 1523.45 1522.96 1522.06 1521.85 1521.28 1520.74 1519.68 1519.16 1518.5 1518.06 1516.63 1515.43 1515.07 1514.89 1513.69 1512.53 1511.2 1509.92 1508.36 1507.94 1506.05 1505.11 1504.89 1506.25
1565.05 1564.31 1563.35 1562.84 1562.19 1561.74 1561.2 1560.52 1559.46 1558.9 1557.13 1556.7 1555.34 1554.21 1552.64 1553.04 1553.35 1553.74 1553.84 1553.2 1552.38 1552.16 1550.97 1549.79 1548.05 1547.58 1546.32 1545.84 1545.14 1544.54 1543.5 1543.06 1542.64 1541.94 1541.53 1541.25 1540.73 1540.34 1540.48 1540.39 1539.87 1539.68 1539.66 1539.7 1539.41 1538.63 1538.18 1537.94 1537.71 1537.63 1537.08 1536.66 1536.44 1535.62 1535.81 1535.58 1534.48 1533.82 1533.24 1533.12 1532.4 1531.41 1530.94 1530.56 1529.33 1528.44 1527.53 1526.98 1526.06 1525.77 1525.47 1525.08 1524.34 1523.89 1523.34 1523.12 1522.58 1522.35 1521.71 1521.02 1520.58 1519.43 1519.16 1519.06 1516.91 1515.44 1514.69 1514.42 1513.95 1512.77 1511.41 1509.77 1508.78 1507.62 1505.87 1505.58 1506.27 1507.74
1563.85 1563.12 1562.09 1561.97 1561.62 1561.43 1560.66 1560.13 1559.26 1558.33 1557.65 1556.86 1555.34 1554.12 1554.39 1555.1 1555.59 1555.53 1554.87 1554.01 1552.75 1552.19 1551.35 1550.48 1548.33 1547.47 1546.9 1546.15 1545.28 1544.93 1544.45 1543.95 1542.55 1542.09 1541.95 1541.71 1541.04 1540.58 1541.52 1540.96 1539.92 1539.53 1539.17 1539.17 1539.03 1538.73 1538.66 1538.57 1538.76 1538.38 1537.53 1537.43 1537.11 1535.93 1535.51 1534.99 1534.13 1533.43 1532.46 1532.94 1532.73 1532.34 1531.29 1530.7 1529.74 1529.04 1527.83 1526.97 1525.93 1525.45 1525.22 1524.98 1524.46 1523.87 1523.48 1523.14 1522.66 1522.2 1521.92 1521.52 1521.28 1520.3 1519.17 1518.77 1516.64 1515.34 1514.49 1514.2 1513.93 1513.55 1512.43 1511.58 1510.8 1509.58 1508.38 1508.11 1508.8 1509.59
1563.7 1563.19 1562.55 1561.58 1561.08 1560.95 1560.48 1559.99 1559.17 1558.42 1558.04 1557.66 1555.66 1555.77 1556.96 1556.82 1557.07 1556.53 1555.67 1554.36 1552.38 1551.64 1550.64 1550.18 1548.36 1547.27 1546.83 1546.15 1545.5 1545.46 1545.12 1544.55 1543.35 1542.66 1542.15 1542.06 1541.07 1540.88 1541.35 1540.65 1539.87 1539.51 1539.26 1539.15 1539.15 1539.06 1539.1 1539.26 1538.96 1538.55 1537.5 1536.9 1536.17 1535.69 1535.52 1535.7 1533.85 1533.21 1531.8 1532.04 1532.37 1532.36 1531.38 1530.65 1529.75 1528.71 1528.27 1527.84 1526.33 1525.46 1524.63 1524.66 1524.15 1523.54 1523.17 1523.04 1522.66 1522.21 1521.66 1521.48 1521.44 1521.04 1518.71 1517.81 1516.46 1515.17 1514.97 1514.98 1514.87 1514.98 1514.2 1513.81 1511.96 1510.87 1509.36 1509.69 1510.72 1510.29
1564.75 1564.54 1563.66 1562.15 1560.9 1560.27 1559.88 1559.44 1558.93 1558.61 1558.14 1557.94 1557.55 1558.35 1558.64 1558.35 1557.64 1557.15 1556.05 1554.22 1552.39 1551.82 1550.98 1550.33 1549.13 1547.77 1546.49 1546.4 1546.21 1545.93 1545.74 1545.48 1545.05 1543.99 1542.7 1542.06 1541.81 1542.26 1541.19 1540.65 1540.19 1539.82 1539.53 1539.44 1539.46 1539.43 1539.41 1539.12 1538.58 1538.12 1537.19 1536.32 1535.72 1535.42 1534.47 1534.45 1532.99 1532.55 1531.73 1530.78 1530.84 1531.1 1530.98 1530.4 1529.7 1529.25 1529.36 1528.26 1526.6 1525.6 1524.4 1523.86 1523.24 1523.06 1522.51 1522.14 1522.18 1521.59 1521.36 1521.01 1520.86 1520.23 1518.69 1517.52 1515.68 1514.93 1515.58 1515.63 1515.93 1515.57 1515.01 1514.27 1512.49 1511.81 1511.33 1512.46 1512.74 1511.62
1565 1564.59 1563.38 1562.25 1560.87 1560.12 1559.31 1559.24 1558.86 1558.74 1558.36 1558.45 1558.23 1558.28 1558.65 1558.33 1557.72 1557.64 1556.48 1555.11 1553.32 1552.74 1551.88 1551.3 1549.79 1548.76 1547.25 1546.19 1545.99 1545.96 1545.3 1544.93 1544.62 1543.89 1542.65 1541.94 1542.64 1543.03 1541.58 1541.06 1540.61 1540.33 1539.82 1539.65 1539.58 1539.6 1539.12 1538.66 1538.02 1537.71 1536.47 1535.72 1534.66 1534.09 1533.11 1532.9 1532.23 1532.01 1532.04 1530.79 1529.83 1530.04 1530.41 1530.64 1529.96 1529.98 1529.44 1528.35 1526.57 1525.89 1524.1 1523.72 1523.09 1523.08 1522.5 1522.31 1522.18 1521.88 1521.25 1521.04 1520.39 1520.31 1519.16 1517.48 1515.98 1515.82 1516.12 1516.26 1516.14 1515.91 1514.63 1513.19 1512.56 1512.32 1512.94 1513.55 1512.85 1511.57
1565.09 1564.39 1563.42 1562.19 1561.06 1560.03 1559.57 1559.71 1559.3 1559.09 1558.77 1558.61 1558.06 1557.85 1557.86 1557.72 1557.31 1557.08 1556.21 1555.46 1553.88 1553.15 1552.99 1552.08 1550.76 1549.82 1548.71 1547.27 1545.83 1545.47 1545.08 1544.36 1544.08 1543.78 1542.74 1542.8 1543.03 1542.82 1541.86 1541.84 1541.03 1540.84 1540.31 1540.09 1539.5 1539.32 1538.31 1538.06 1537.6 1537.27 1536.14 1535.13 1533.42 1532.8 1532.21 1532.12 1531.47 1531.08 1531 1530.79 1529.95 1529.71 1529.57 1529.59 1530.02 1529.93 1529.97 1528.22 1526.89 1526.11 1524.02 1523.76 1523.39 1523.08 1523.29 1523.29 1523.41 1523.27 1523.07 1522.61 1521.28 1520.34 1519.09 1517.97 1517.59 1517.47 1517.14 1516.66 1515.8 1515.24 1514.54 1514.17 1513.38 1513.41 1514.36 1513.98 1513.02 1512.56
1564.81 1564.2 1563 1562.06 1560.93 1560.32 1560.1 1559.94 1559.66 1559.38 1559.1 1558.9 1558.6 1558.25 1557.47 1557.19 1556.56 1556.1 1555.74 1555.07 1553.86 1553.65 1552.9 1552.35 1551.52 1550.9 1549.61 1548.08 1545.98 1545.45 1544.94 1544.61 1544.13 1543.91 1543.34 1543.17 1542.71 1542.54 1542.18 1541.9 1541.05 1540.99 1540.37 1540.07 1539.43 1538.93 1538.32 1537.99 1537.49 1537.09 1535.53 1534.63 1533.08 1532.88 1532.22 1531.87 1531.38 1531 1530.67 1530.53 1529.92 1529.66 1529.62 1529.51 1529.45 1529.24 1529.08 1527.88 1526.45 1524.96 1524.51 1523.85 1523.66 1523.47 1523.62 1523.64 1523.79 1523.56 1523.06 1522.43 1521.53 1520.78 1519.48 1518.76 1518.52 1518.23 1517.46 1516.99 1515.86 1515.63 1515.38 1515.15 1514.41 1514.66 1514.71 1514.54 1513.92 1513.55
1563.27 1562.81 1561.79 1561.14 1560.61 1560.6 1560.51 1560.26 1560.06 1559.89 1559.81 1559.7 1559.28 1558.79 1558.31 1557.58 1556.76 1556.29 1555.64 1555.24 1554.81 1553.77 1552.86 1552.14 1551.25 1550.92 1550.3 1548.88 1546.83 1545.63 1544.74 1544.36 1543.93 1543.94 1543.83 1543.81 1543.34 1543.04 1542.19 1541.69 1541.32 1540.86 1540.22 1539.87 1539.3 1538.86 1538.16 1537.97 1537.45 1536.96 1535.86 1535.36 1533.71 1533.66 1533.28 1533.1 1532.18 1531.77 1531.17 1531.05 1530.68 1530.37 1530.03 1529.79 1529.79 1529.72 1529.41 1529.04 1526.84 1525.78 1525.94 1525.88 1525.56 1525.25 1524.65 1524.38 1524.08 1523.69 1522.97 1522.46 1521.78 1521.03 1520.33 1519.76 1519.31 1519.1 1518.51 1517.84 1517.07 1516.9 1516.36 1516.12 1515.65 1515.46 1514.93 1514.58 1514.29 1514.08
1562.68 1561.85 1561.79 1561.56 1561.3 1561.21 1560.74 1560.58 1560.38 1560.17 1560.24 1560.15 1559.55 1559.04 1558.44 1558.13 1557.28 1556.87 1555.93 1555.35 1554.79 1553.82 1552.88 1551.91 1551.1 1550.5 1549.43 1548.74 1547.21 1546.16 1545.22 1544.62 1544.26 1544.56 1544.15 1544.19 1543.97 1543.24 1542.37 1541.78 1541.27 1540.9 1540.63 1540.96 1539.68 1538.88 1538.23 1537.87 1537.32 1536.82 1536.27 1535.8 1534.81 1534.43 1534.01 1533.72 1533.18 1532.65 1532.3 1531.81 1531.54 1531.3 1530.81 1530.72 1530.84 1530.4 1529.9 1529.44 1528.77 1528.12 1527.39 1527.04 1526.3 1525.71 1525.05 1524.45 1523.87 1523.39 1523 1522.75 1521.83 1521.11 1520.35 1520.12 1519.57 1519.62 1518.83 1518.24 1517.36 1516.93 1516.52 1516.26 1515.78 1515.63 1514.95 1514.39 1513.95 1514.09
1563.38 1563.07 1562.63 1562.49 1562.09 1561.55 1561.12 1560.74 1560.7 1560.68 1560.19 1559.55 1559.5 1559.36 1558.39 1558.04 1557.19 1556.43 1555.13 1554.45 1553.74 1553.36 1552.48 1551.85 1550.89 1550.39 1549.34 1548.58 1547.68 1546.92 1545.65 1544.91 1544.89 1545.15 1544.84 1544.7 1544.82 1543.9 1542.44 1542.04 1541.53 1541.74 1542.47 1542.24 1540.83 1540.18 1539.67 1538.99 1537.3 1536.71 1536.07 1535.81 1535.23 1534.92 1534.5 1534.15 1533.78 1533.45 1532.86 1532.54 1532.12 1531.85 1531.48 1531.24 1530.88 1530.4 1529.95 1529.5 1528.92 1528.47 1527.64 1527.23 1526.33 1525.84 1525.03 1524.47 1523.65 1523.22 1522.41 1522.19 1521.77 1521.35 1520.77 1520.55 1520.03 1519.94 1519.21 1518.61 1517.56 1517.24 1516.08 1515.69 1515.19 1515.07 1514.73 1514.15 1513.38 1512.6
1563.68 1563.4 1563.24 1562.89 1562.64 1562.08 1561.21 1560.75 1560.39 1560.53 1559.79 1558.99 1558.84 1558.91 1558.08 1557.08 1555.63 1554.83 1553.74 1553.24 1552.51 1551.98 1551.09 1550.34 1549.76 1549.64 1549.07 1548.48 1547.55 1546.99 1546.23 1545.09 1545.21 1545.38 1545.35 1545.2 1545.06 1543.73 1542.62 1542.26 1542.09 1542.61 1542.78 1542.34 1541.28 1540.94 1540.45 1539.83 1539 1537.85 1536.27 1535.72 1535.21 1534.98 1534.47 1534.22 1533.73 1533.47 1532.91 1532.5 1532.07 1531.84 1531.52 1531.27 1530.83 1530.46 1529.92 1529.64 1529 1528.63 1527.82 1527.41 1526.35 1525.71 1524.79 1524.16 1523.55 1522.98 1522.27 1521.95 1521.57 1521.17 1520.92 1520.73 1520.21 1519.97 1518.98 1518.3 1517.14 1516.29 1514.64 1514.46 1513.93 1513.95 1513.75 1513.21 1512.79 1512.07
1563.69 1563.24 1562.8 1562.34 1561.47 1561.13 1559.67 1559.02 1558.43 1559.1 1558.91 1557.94 1557.56 1557.49 1557.16 1556.14 1554.11 1552.93 1551.82 1551.06 1550.53 1550.81 1548.68 1548.69 1548.52 1547.9 1547.39 1547.1 1546.6 1545.89 1545.47 1545.38 1545.7 1545.4 1545.21 1545.01 1544.25 1543.57 1543.09 1542.93 1543.32 1543.5 1543.16 1542.83 1542.05 1541.67 1540.89 1540.65 1539.81 1539.79 1538.17 1536.94 1537.15 1537.73 1535.86 1534.82 1533.7 1533.35 1532.78 1532.38 1531.83 1531.55 1531.44 1531.68 1531.47 1531.34 1531.11 1530.61 1530.46 1530.07 1528.96 1528.13 1526.81 1525.84 1524.38 1523.65 1523.48 1523.01 1522.3 1521.8 1521.24 1520.87 1520.28 1520.49 1520.21 1519.96 1519.08 1518.57 1515.97 1514.57 1513.85 1513.47 1513.23 1513.07 1512.59 1512.48 1512.03 1511.77
1562.84 1562.07 1561.11 1560.87 1560.36 1560.1 1559.19 1559.03 1558.58 1557.98 1558.2 1557.27 1556.33 1555.8 1555.5 1555.45 1553.48 1552.25 1550.65 1550.07 1550.33 1550.94 1549.82 1549.91 1548.27 1548.68 1547.42 1547.74 1547.24 1547.11 1546.54 1546.42 1545.9 1545.23 1545.04 1544.88 1544.28 1543.99 1543.54 1543.55 1543.83 1543.61 1543.05 1542.7 1541.79 1541.3 1540.89 1540.19 1539.82 1539.51 1538.48 1537.14 1538.22 1538.15 1536.34 1534.95 1533.97 1533.54 1532.83 1532.5 1531.66 1531.39 1531.27 1531.45 1531.49 1531.52 1531.06 1530.92 1530.75 1530.49 1529.96 1528.93 1526.92 1525.93 1524.63 1523.93 1523.01 1522.87 1522.15 1521.68 1521.1 1520.61 1520.12 1520.17 1520.29 1520.36 1519.8 1518.23 1515.57 1514.09 1513.64 1513.22 1512.95 1512.77 1512.52 1512.39 1512.09 1511.98
1562.65 1561.53 1561.15 1560.79 1560.73 1560.7 1560.74 1560.54 1559.71 1558.33 1556.99 1556.87 1556.65 1555.89 1553.55 1553.06 1552.08 1550.78 1551.49 1551.36 1551.22 1551.3 1550.65 1549.91 1549.8 1549.9 1549.35 1549.43 1548.31 1547.82 1547.12 1546.72 1546.2 1545.89 1545.44 1545.21 1544.8 1544.53 1544.19 1544.34 1544.12 1543.89 1542.8 1542.15 1541.35 1540.87 1540.32 1539.69 1539.09 1538.45 1538.06 1538.37 1538.89 1537.88 1536.35 1535.2 1534.52 1533.9 1532.69 1532.29 1531.72 1531.34 1531.14 1531.31 1531.28 1531.33 1530.72 1530.43 1530.34 1530.28 1529.7 1528.41 1526.53 1525.94 1524.87 1524.09 1522.93 1522.61 1522.23 1521.77 1521.31 1520.82 1519.88 1519.59 1520.44 1521.04 1520.44 1518.06 1515.59 1514.36 1513.34 1513.11 1512.86 1512.77 1512.62 1512.49 1512.41 1512.3
1563.1 1562.68 1562.07 1561.31 1561.44 1561.33 1561.06 1560.71 1560.25 1559.57 1558.09 1557.39 1557.62 1556.95 1555.33 1553.94 1551.95 1552.34 1552.83 1552.33 1551.6 1551.36 1550.28 1549.87 1550.18 1550.21 1550.08 1550.1 1549.4 1548.74 1547.68 1547.28 1546.71 1546.51 1546 1545.73 1545.25 1544.96 1544.76 1544.25 1543.82 1543.55 1542.34 1541.89 1540.87 1540.72 1540.12 1539.77 1539.04 1538.68 1538.56 1538.96 1538.84 1537.8 1536.31 1535.61 1535.07 1534.39 1532.92 1532.47 1531.71 1531.43 1531.15 1530.85 1530.99 1530.99 1530.82 1530.11 1529.51 1529.52 1529.23 1528.23 1526.55 1525.88 1524.94 1524.14 1523.2 1522.59 1522.31 1521.98 1521.68 1521.29 1519.77 1519.47 1520.15 1520.77 1520.67 1519.34 1517.26 1515.42 1514.01 1513.4 1512.92 1512.84 1512.68 1512.69 1512.57 1512.47
1563.72 1563.25 1562.43 1562.2 1562.15 1561.84 1561.38 1560.8 1560 1559.25 1558.9 1558.43 1557.87 1557.88 1557.49 1556.77 1555.41 1554.9 1553.56 1552.75 1551.36 1550.98 1550.63 1550.55 1550.78 1550.8 1550.55 1550.37 1549.78 1549.73 1549.06 1548.34 1547.38 1547.51 1547.01 1546.57 1545.94 1545.6 1545.2 1544.37 1543.2 1542.58 1542.09 1541.85 1541.11 1540.84 1540.26 1539.78 1539.48 1539.3 1539.6 1539.29 1538.79 1537.86 1537.02 1536.63 1536.22 1535.42 1533.64 1533.32 1533.04 1532.61 1531.5 1530.79 1530.69 1530.27 1530.27 1529.7 1528.93 1528.91 1528.03 1527.66 1526.46 1525.52 1525.11 1524.58 1523.13 1522.92 1522.46 1522.16 1521.4 1520.78 1519.85 1519.29 1518.95 1519 1520.32 1520.01 1518.8 1517.15 1515.16 1514.6 1513.17 1513.07 1512.81 1512.62 1512.66 1512.28
1563.89 1563.81 1563.42 1563.14 1562.17 1561.87 1561.08 1560.24 1559.39 1558.87 1558.49 1558.1 1557.66 1557.45 1557.46 1557.14 1556.19 1555.6 1553.96 1553.36 1551.62 1551.07 1550.68 1550.88 1550.94 1551.14 1550.73 1550.24 1549.84 1549.64 1549.39 1548.5 1547.76 1547.77 1547.51 1546.83 1546.38 1546.18 1545.58 1544.59 1543.14 1542.5 1542.13 1542.02 1541.35 1541.08 1540.31 1540.16 1540.1 1540.28 1540.31 1539.63 1538.54 1537.88 1537.63 1537.52 1536.73 1535.92 1534.48 1534.29 1534.49 1533.77 1532.23 1531.33 1530.7 1530.23 1529.59 1529.32 1528.63 1528.45 1528.1 1527.41 1526.62 1525.54 1524.53 1524.34 1523.14 1522.8 1522.57 1522.08 1521.06 1520.46 1519.99 1519.51 1518.77 1518.63 1519.47 1519.63 1518.38 1517.43 1516.56 1515.8 1514.27 1513.53 1512.94 1512.88 1512.43 1511.58
1565.21 1565.05 1564.27 1563.54 1562.1 1561.98 1561.16 1560.32 1558.97 1558.54 1558.26 1557.84 1557.35 1557.08 1556.87 1556.81 1556.53 1556.1 1555.82 1554.83 1552.77 1551.65 1551.19 1551.32 1551.1 1550.97 1550.79 1550.27 1549.82 1549.39 1549.19 1549.01 1548.85 1548.58 1547.9 1547.67 1547.17 1546.88 1546.23 1545.25 1543.92 1543.58 1542.85 1542.09 1541.32 1541.2 1541.09 1541.07 1541.16 1540.67 1539.53 1539.04 1538.82 1538.84 1539.33 1538.95 1537.49 1536.53 1536.11 1536.18 1536.29 1536.24 1534.15 1532.68 1531.18 1530.58 1529.77 1529.43 1528.95 1528.53 1527.88 1527.38 1526.75 1525.61 1524.37 1523.67 1522.4 1522.41 1522.06 1521.9 1520.74 1520.27 1519.87 1519.49 1518.94 1518.49 1518.3 1518.31 1518 1518 1517.9 1517.75 1516.68 1516.24 1515.42 1514.8 1512.58 1511.48
1565.66 1565.41 1564.66 1563.69 1562.43 1561.97 1561.18 1560.28 1559.02 1558.53 1558.18 1557.85 1557.43 1557.07 1556.51 1556.1 1555.94 1555.81 1555.49 1554.44 1553.3 1552.33 1551.66 1551.56 1551.32 1551.03 1550.52 1550.2 1550.08 1549.83 1549.5 1549.33 1549.19 1549.02 1548.08 1547.97 1547.59 1547.35 1546.67 1545.75 1544.74 1544.65 1543.33 1542.46 1541.89 1541.69 1541.58 1541.72 1541.27 1540.51 1539.74 1539.65 1539.71 1539.98 1539.93 1539.56 1538.44 1537.83 1537.21 1537.34 1536.88 1536.18 1534.45 1532.86 1531.57 1530.87 1530.05 1529.55 1528.98 1528.57 1527.81 1527.18 1526.53 1525.64 1524.4 1523.9 1522.49 1522.19 1521.73 1521.31 1520.42 1520.05 1519.7 1519.09 1518.77 1518.33 1518.07 1517.68 1518.31 1517.88 1517.87 1518.18 1517.73 1517.26 1516.32 1515.48 1512.16 1511.78
1566.12 1565.72 1564.97 1563.91 1562.34 1561.81 1560.74 1559.79 1558.92 1558.42 1557.96 1557.64 1557.48 1557.17 1556.29 1555.69 1555.47 1554.47 1554.02 1553.41 1552.68 1552.51 1552.1 1551.69 1551.64 1551.14 1550.86 1550.81 1550.61 1550.38 1549.88 1549.65 1549.41 1548.97 1548.78 1548.55 1548.18 1547.73 1546.86 1546.33 1546.18 1546.16 1544.43 1543.66 1542.93 1542.27 1542.54 1542.27 1541.27 1540.96 1541 1541.12 1540.9 1540.83 1540.7 1540.02 1539.36 1539.17 1538.27 1537.94 1536.9 1535.79 1533.95 1532.85 1531.62 1530.97 1530.23 1529.66 1529.17 1529.07 1528.17 1527.48 1526.66 1526.1 1524.47 1523.36 1522.22 1522.04 1521.51 1521.16 1520.51 1520.04 1519.62 1519.48 1518.94 1518.53 1517.77 1517.46 1517.18 1517.71 1517.51 1517.52 1517.05 1516.61 1515.55 1514.49 1512.7 1512.33
1566.16 1565.51 1564.81 1564.22 1562.9 1562.06 1560.92 1559.95 1559.26 1558.66 1557.92 1557.85 1557.79 1557.45 1556.98 1556.43 1555.74 1555.34 1554.62 1554.11 1553.35 1552.7 1552.31 1552.01 1551.82 1551.45 1551.21 1550.98 1550.43 1550.22 1550.03 1549.91 1549.63 1549.31 1549.1 1548.86 1548.55 1548.11 1547.09 1546.91 1546.82 1546.46 1544.93 1544.34 1543.78 1543.39 1542.57 1541.95 1541.3 1541.28 1541.33 1541.35 1541.12 1541 1540.65 1540.29 1539.85 1539.43 1538.67 1537.92 1536.45 1535.55 1533.77 1532.85 1531.57 1530.82 1530.4 1529.93 1529.49 1529.24 1528.62 1527.74 1526.79 1525.9 1524.32 1523.36 1522.5 1522.33 1521.5 1520.94 1520.67 1520.26 1520.11 1519.78 1519.22 1518.87 1517.7 1517.35 1516.9 1516.52 1516.93 1517.26 1517.09 1516.41 1514.71 1513.57 1512.96 1512.77
1565.63 1565.16 1564.61 1564.3 1563.25 1562.22 1560.69 1559.8 1559.14 1558.85 1558.44 1558.52 1558.32 1557.95 1557.08 1556.45 1556.53 1556.17 1555.85 1555.14 1553.81 1553.24 1553.01 1552.88 1552.46 1552.1 1551.78 1551.62 1551.55 1551.46 1550.28 1550.12 1550.1 1549.97 1549.45 1549.01 1548.39 1548.15 1547.73 1547.41 1547.01 1546.76 1545.66 1545.19 1544.12 1543.46 1542.9 1542.28 1541.74 1541.84 1541.59 1541.56 1541.19 1540.8 1540.55 1540.27 1540.06 1539.82 1538.76 1537.44 1536.78 1535.68 1534.09 1532.87 1531.3 1530.68 1530.31 1529.9 1529.54 1529.44 1529.03 1528.55 1527.44 1526.66 1524.97 1523.69 1522.7 1522.32 1521.87 1521.8 1520.98 1520.68 1520.19 1519.83 1519.57 1519.2 1518.75 1517.95 1516.8 1516.49 1515.96 1515.58 1514.96 1514.67 1514.25 1513.91 1514.28 1514.46
1565.63 1564.99 1564.55 1564.21 1562.61 1561.76 1560.37 1559.99 1559.4 1558.92 1558.84 1558.48 1557.84 1557.64 1556.81 1556.27 1555.8 1555.55 1554.73 1554.26 1553.58 1553.39 1553.08 1552.93 1552.76 1552.25 1551.68 1551.69 1551.63 1551.43 1551.37 1551.06 1550.52 1550.21 1549.68 1549.3 1548.93 1548.6 1548.11 1547.57 1547.1 1546.61 1545.98 1545.05 1544.23 1543.63 1542.83 1542.46 1542.63 1542.62 1541.9 1541.7 1541.48 1541.02 1540.77 1540.32 1539.73 1539.41 1539.06 1538.67 1537.66 1536.65 1534.73 1533.3 1531.88 1530.98 1530.11 1529.87 1529.47 1529 1528.94 1528.95 1528.36 1527.96 1526.18 1524.84 1523.47 1522.72 1522.36 1522.01 1521.29 1521.07 1520.41 1520.35 1519.91 1519.73 1519.39 1518.83 1517.37 1516.43 1516.05 1515.77 1515.27 1514.92 1514.42 1514.93 1515.73 1515.41
1565.63 1565.19 1564.55 1563.9 1562.17 1561.5 1560.78 1560.29 1560.05 1559.41 1558.65 1558.31 1557.32 1556.15 1555.37 1555.07 1554.71 1554.49 1554.13 1554.16 1554.06 1553.81 1553.61 1553.59 1553.42 1552.44 1551.62 1551.37 1552.27 1552.35 1551.82 1551.55 1551.41 1550.84 1550.25 1550.23 1549.66 1549.64 1548.89 1547.89 1547.36 1547.19 1546.88 1546.18 1544.28 1543.23 1542.87 1542.94 1543.02 1542.69 1542.21 1541.74 1541.19 1540.9 1540.35 1540.13 1540.03 1540.03 1540.38 1540.46 1539.76 1538.64 1536.56 1535.12 1532.15 1531.28 1530.01 1529.5 1529.19 1528.73 1528.47 1528.68 1528.38 1527.97 1527.36 1526.38 1524.9 1524.03 1523.24 1522.82 1522.34 1522.05 1521.38 1521 1520.13 1520.28 1520.19 1519.61 1517.83 1517.62 1517.51 1517.04 1516.4 1516.55 1516.7 1516.82 1516.89 1517.21
1566.31 1565.8 1564.84 1564.37 1563 1562.44 1561.32 1560.79 1560.43 1559.72 1559.24 1559.01 1557.48 1556.42 1555.33 1555.3 1555.06 1554.96 1554.73 1554.71 1554.05 1554 1553.73 1553.65 1553.44 1553.51 1553.41 1552.66 1553 1552.68 1552.72 1553.15 1553.26 1552.43 1551.37 1550.9 1550.02 1549.69 1548.83 1547.81 1546.81 1546.75 1546.56 1546.34 1544.34 1543.11 1542.76 1542.72 1542.85 1542.69 1542.1 1541.64 1541.36 1541.16 1541.12 1540.47 1540.12 1540.37 1540.75 1541.04 1540.86 1539.78 1538.03 1536.47 1533.83 1532.03 1530.43 1529.65 1529 1528.8 1528.31 1528.42 1528.28 1528.07 1527.5 1526.87 1525.53 1524.66 1523.81 1523.37 1523.16 1522.68 1521.79 1521.17 1520.57 1520.44 1520.3 1519.67 1518.19 1518.06 1518.31 1517.91 1517.3 1517.32 1517.26 1517.4 1517.31 1517.33
1568.06 1567.04 1566.15 1565.35 1564.41 1563.66 1562.05 1561.43 1560.79 1559.98 1559.27 1559.02 1557.92 1557.03 1556.03 1556.24 1555.95 1556.38 1556.09 1555.55 1555.3 1554.6 1554.08 1553.96 1554.29 1554.79 1554.52 1554.11 1553.36 1553.07 1553.74 1554.68 1554.83 1554.18 1553.16 1552.22 1550.97 1549.52 1548.53 1547.72 1546.6 1545.77 1545.83 1545.26 1544.4 1543.57 1542.78 1542.61 1542.72 1542.42 1542.14 1541.86 1541.7 1541.59 1541.41 1541.07 1540.74 1540.75 1541.33 1541.67 1542.17 1541.69 1540.36 1538.61 1536.02 1533.61 1531.82 1530.96 1529.97 1529.14 1528.19 1527.93 1527.5 1527.24 1527.06 1526.83 1526.36 1525.75 1524.76 1524.53 1523.84 1523.33 1522.37 1521.7 1521.08 1520.77 1520.07 1519.82 1518.79 1518.74 1518.27 1517.84 1517.95 1516.84 1517.47 1517.17 1517.2 1517.08
1569.56 1568.72 1566.89 1566.04 1564.99 1564.21 1562.87 1562.36 1561.15 1560.47 1559.52 1558.95 1558.24 1557.41 1556.98 1557.28 1556.85 1557.57 1556.81 1556.05 1555.45 1555.55 1555.86 1556.18 1555.89 1555.82 1554.61 1554.23 1554.02 1554.31 1554.55 1555.41 1555.18 1554.73 1553.36 1552.75 1551.1 1549.91 1549.14 1548.46 1547.42 1546.5 1545.19 1543.95 1543.72 1543.8 1543.5 1544.2 1544.58 1543.85 1542.38 1543.24 1542.03 1541.63 1541.38 1541 1540.89 1541.06 1541.48 1541.85 1542.45 1542.49 1541.73 1539.9 1537.13 1534.86 1533.18 1532.21 1530.71 1529.09 1527.86 1527.5 1527.12 1527.08 1526.78 1526.62 1526.4 1525.99 1525.37 1525.1 1524.97 1524.13 1522.78 1522.02 1521.04 1520.75 1520.16 1519.31 1519.08 1518.92 1518.27 1518 1517.48 1516.42 1516.47 1516.85 1518.12 1518.54
1571.48 1570.59 1568.8 1567.42 1566.17 1565.53 1564.86 1564.43 1562.06 1561.34 1560.78 1559.9 1559.42 1558.63 1558.21 1558.26 1558.34 1558.32 1557.01 1556.31 1555.54 1555.16 1556.64 1557.18 1557.34 1555.98 1555.06 1554.85 1555.21 1554.88 1555.37 1555.58 1555.77 1555.43 1554.73 1553.73 1551.56 1550.42 1549.21 1549.19 1548.59 1547.89 1544.72 1544.33 1543.79 1543.74 1545.01 1545.98 1546.41 1546.07 1544.82 1544.55 1542.89 1542.02 1541.66 1541.42 1541.36 1541.17 1541.44 1541.83 1542.48 1542.74 1542.25 1541.46 1538.48 1536.69 1535.01 1533.21 1530.49 1529.27 1527.8 1527.27 1526.95 1526.65 1526.71 1526.65 1526.31 1526.19 1525.51 1525.78 1524.76 1524.47 1523.89 1523 1521.19 1520.42 1519.75 1519.47 1519.45 1519.16 1518.28 1518.06 1517.34 1515.94 1516.95 1519.05 1521.65 1521.12
1572.09 1571.25 1569.57 1568.48 1567.2 1566.57 1565.92 1565.53 1562.89 1562.12 1561.37 1560.73 1560.18 1559.37 1558.79 1558.72 1559.93 1559.13 1557.61 1556.38 1555.45 1555.56 1557.23 1557.94 1557.27 1555.66 1555.37 1555.41 1555.64 1555.33 1555.7 1556.15 1555.58 1555.9 1554.89 1554.14 1551.03 1549.73 1549.64 1549.84 1548.99 1547.8 1546.02 1545.08 1544.34 1544.07 1546.04 1546.65 1546.51 1547.52 1546.32 1545.63 1544.26 1543.52 1542.35 1541.9 1541.68 1541.33 1541.59 1541.73 1542.46 1542.82 1542.6 1542.06 1539.95 1537.89 1536.5 1533.88 1530.25 1529.29 1527.64 1527.24 1526.52 1526.55 1526.58 1526.48 1526.26 1526.23 1525.42 1525.43 1524.77 1524.28 1523.85 1523.06 1521.39 1520.73 1519.75 1519.68 1519.53 1518.87 1518.08 1517.79 1517.43 1516.44 1517.89 1520.84 1521.52 1520.96
1572.67 1571.78 1569.19 1568.46 1568.04 1567.21 1565.46 1564.93 1563.18 1562.59 1561.92 1561.68 1561.12 1560.23 1559.44 1559.95 1561.74 1561.37 1559.22 1557.12 1556.03 1556.87 1557.68 1558.33 1556.66 1556.19 1555.77 1557.31 1556.68 1556.91 1556.44 1556.34 1555.19 1554.72 1554.83 1554.15 1550.99 1550.21 1550.95 1550.31 1549.85 1549.04 1546.99 1546.83 1546.86 1546.84 1548.24 1548.32 1549.04 1549.38 1549.68 1548.8 1547.1 1544.89 1542.65 1542.26 1541.88 1541.5 1541.42 1541.67 1542.17 1542.36 1542.52 1542.31 1540.27 1539.07 1536.23 1533.7 1529.69 1528.41 1527.43 1527.04 1526.44 1526.05 1526.39 1526.28 1526.08 1526.07 1525.61 1525.32 1525.04 1524.55 1523.91 1522.83 1520.86 1520.37 1520.64 1520.15 1519.4 1519.07 1517.96 1517.65 1517.64 1517.18 1519.24 1520.62 1521.27 1522.13
1571.52 1570.37 1568.82 1567.8 1567.51 1566.42 1565.07 1564.29 1563.87 1563.08 1562.51 1562.65 1562.13 1561.01 1560.22 1560.46 1561.86 1561.99 1560.17 1557.86 1557.18 1557.38 1558.06 1557.88 1556.6 1556.41 1556.42 1557.91 1557.5 1557.2 1556.71 1556.43 1555.57 1554.84 1553.97 1553.72 1552.3 1552.07 1551.74 1551.25 1550.97 1549.84 1549.41 1548.94 1548.77 1548.15 1548.85 1548.96 1549.33 1549.61 1550.36 1549.61 1548.97 1547.4 1544.6 1543.35 1541.81 1541.52 1541.24 1541.4 1541.78 1541.78 1541.76 1541.54 1539.79 1538.9 1536.35 1533.76 1529.73 1528.18 1527.05 1526.88 1526.63 1526.19 1525.97 1525.93 1525.98 1525.98 1525.5 1525.44 1524.79 1524.64 1523.79 1522.36 1521.26 1521.18 1520.98 1520.86 1520.46 1519.54 1518.61 1518.5 1518.98 1520.02 1520.96 1522.06 1522.86 1522.58
1571 1569.37 1567.89 1566.97 1566.54 1565.5 1564.62 1564.36 1564.08 1564.22 1564.31 1563.89 1562.54 1561.68 1561.3 1560.81 1560.45 1559.88 1559.86 1558.77 1558.27 1558.22 1558.35 1557.94 1556.76 1556.74 1557.06 1558.25 1557.48 1557.1 1556.74 1556.5 1555.83 1555.38 1554.11 1553.44 1552.47 1552.18 1551.54 1551.22 1551.23 1550.38 1550.33 1551.05 1549.94 1549.49 1549.14 1549.06 1549.58 1549.79 1549.91 1549.59 1550.35 1549.5 1547.95 1546.07 1542.68 1541.56 1540.89 1540.67 1540.7 1540.58 1540.76 1539.28 1538.12 1536.61 1534.21 1532.09 1529.24 1527.77 1526.53 1526.2 1526.11 1526.1 1525.22 1525.22 1524.92 1524.89 1524.68 1524.9 1524.12 1523.79 1522.87 1522.2 1521.94 1521.64 1521.66 1521.04 1520.73 1520.1 1521.21 1522.56 1523.68 1524.66 1524.92 1524.95 1524.09 1523.96
1569.52 1568.74 1567.79 1566.51 1565.86 1565.72 1564.74 1564.57 1564.14 1564.22 1563.92 1563.23 1561.93 1561.45 1561 1560.79 1560.02 1559.62 1559.14 1559.2 1559.36 1559.86 1559.45 1559.13 1557.03 1556.96 1558.07 1558.06 1557.04 1557.2 1557.91 1556.47 1556.22 1555.87 1555.56 1555.03 1554.33 1553.41 1552.9 1552.67 1551.98 1551.58 1551.18 1551.59 1550.61 1551.13 1550.05 1549.78 1549.65 1549.19 1549.55 1549.14 1549.67 1550.21 1548.94 1547.69 1543.87 1541.95 1540.63 1540.01 1539.55 1539.59 1538.27 1537.77 1536.68 1535.28 1532.52 1530.92 1528.73 1527.27 1526.53 1526.11 1525.63 1525.85 1525.87 1526.27 1524.98 1525.89 1524.38 1524.24 1523.51 1522.95 1522.78 1522.66 1522.01 1521.57 1522.32 1521.69 1521.13 1521.16 1523.72 1524.57 1525.62 1525.93 1526.06 1525.49 1524.26 1524
1568.77 1567.29 1567.17 1565.65 1565.08 1565.99 1566.4 1567.15 1566.69 1565.88 1562.78 1562.93 1562.51 1562.21 1562.06 1561.69 1561.51 1561.18 1560.01 1560.09 1560.73 1560.42 1560.48 1559.1 1557.34 1557.33 1558.49 1557.68 1556.62 1555.97 1554.97 1553.92 1553.21 1552.95 1552.09 1551.5 1551.54 1551.86 1552.72 1553.25 1553.64 1554.09 1553.12 1552.11 1550.47 1550.81 1551.34 1551.67 1549.79 1548.7 1548.88 1548.93 1549.52 1548.76 1550.59 1548.91 1545.95 1542.87 1540.78 1539.16 1537.87 1537.42 1536.8 1535.53 1533.96 1533.65 1531.47 1529.99 1528.29 1527.48 1526.39 1525.88 1525.2 1525.76 1527.13 1527.58 1527.73 1527.67 1526.7 1526.04 1524.41 1524.02 1523.6 1523.07 1523.58 1524.81 1525.99 1525.9 1525.51 1524.6 1525.7 1525.35 1526.2 1526.24 1526.61 1526.24 1526.44 1525.66
1568.18 1567.35 1566.27 1565.6 1567.63 1568.13 1568.63 1568.85 1567.8 1565.8 1563.14 1562.7 1563.9 1563.56 1562.96 1562.38 1562.8 1562 1560.92 1560.7 1561.03 1560.77 1560.14 1559.03 1557.54 1557.35 1558.25 1557.12 1556.48 1555.59 1554.27 1553.69 1553 1552.25 1551.65 1551.08 1550.53 1550.03 1550.2 1550.89 1551.59 1551.93 1553.26 1553.45 1552.85 1551.94 1551.26 1550.98 1551.64 1549.84 1548.82 1549.07 1549.63 1549.15 1550 1549.57 1547.4 1544.32 1540.4 1538.8 1536.87 1536.27 1535.37 1534.75 1533.18 1532.45 1530.73 1530.11 1528.4 1527.74 1526.05 1525.97 1525.25 1526.01 1527.82 1528.31 1528.24 1528.33 1527.29 1526.73 1526.43 1526.21 1525.45 1524.29 1524.72 1526.14 1526.39 1526.67 1525.87 1525.93 1525.96 1526.68 1526.02 1526.07 1526.53 1526.81 1525.95 1525.33
1568.13 1567.41 1567.59 1567.85 1569.37 1569.35 1569.77 1569.79 1568.51 1567.31 1566.27 1565.58 1565.36 1564.53 1563.16 1563.22 1563.17 1562.24 1561.53 1561.42 1560.92 1559.95 1559.52 1559.3 1557.65 1557.4 1557.12 1556.76 1556.13 1555.53 1553.98 1553.17 1552.89 1552.54 1551.9 1551.49 1550.81 1550.46 1549.92 1549.79 1550.03 1549.86 1549.7 1550.46 1551.17 1551.08 1552.19 1551.51 1551.14 1550.15 1549.63 1549.32 1549.45 1550.01 1549.6 1549.67 1546.99 1544.25 1540.81 1538.85 1536.3 1535.48 1534.28 1533.34 1532.2 1531.5 1530.11 1530.06 1528.56 1528.31 1526.41 1527.61 1527.78 1528.9 1528.99 1529.07 1529.03 1528.96 1527.47 1527.8 1528.17 1528.11 1527.65 1526.79 1525.94 1526.35 1526.6 1526.79 1526.7 1526.72 1526.67 1526.37 1526.39 1526.75 1525.95 1525 1524.49 1523.74
1570.29 1569.47 1569.66 1568.7 1569.62 1569.26 1569.51 1569.57 1568.48 1567.71 1567.42 1567.02 1566 1565.1 1564.11 1563.85 1562.98 1561.06 1560.44 1560.17 1559.7 1559.58 1559.36 1558.85 1557.69 1557.47 1557.08 1556.84 1556.2 1555.83 1554.28 1553.24 1552.77 1552.15 1551.55 1551.4 1551.32 1551.06 1550.46 1550.19 1549.77 1549.49 1549.03 1548.63 1548.33 1548.2 1548.31 1549.27 1550.24 1551.01 1550.9 1550.49 1549.13 1549.03 1549.5 1549.6 1547.04 1544.89 1541.78 1539.8 1536.8 1535.84 1533.6 1532.81 1532.2 1531.83 1530.8 1531.15 1529.81 1529.08 1529.4 1529.01 1529.32 1529.88 1530.02 1529.51 1528.8 1528.43 1527.5 1527.25 1527.59 1528.14 1528.17 1527.58 1527.01 1527.47 1526.88 1527.07 1527.05 1526.69 1527 1527 1526.79 1526.62 1524.84 1525.06 1524.09 1523.87
1571.62 1571.86 1571.46 1570.17 1569 1569.2 1569.99 1569.7 1568.73 1567.42 1566.39 1566.54 1565.67 1565.48 1563.73 1562.62 1562.15 1561.49 1560.32 1560.12 1560.03 1559.78 1558.73 1558.1 1557.63 1557.27 1556.63 1556.77 1556.84 1556.17 1554 1553.38 1553.16 1553.05 1552.47 1552.05 1551.51 1551.16 1550.56 1550.18 1549.72 1549.42 1548.96 1548.67 1548.21 1547.86 1547.55 1547.29 1547.31 1547.52 1548.07 1548.38 1549.24 1549.72 1549.57 1548.93 1548 1546.53 1543.45 1542.1 1539.37 1537.9 1535.93 1534.54 1533.35 1532.97 1532.14 1532.58 1532.63 1531.37 1530.88 1530.74 1530.47 1530.54 1530.35 1529.61 1528.31 1527.67 1527.67 1527.67 1528.07 1528.66 1528.62 1528.02 1528.35 1527.36 1527.52 1527.48 1527.32 1526.95 1526.65 1526.02 1525.51 1525.7 1525.73 1525.15 1524.96 1524.58
1571.98 1572.32 1572.25 1571.3 1569.17 1569.8 1570.43 1569.71 1567.28 1566.32 1564.87 1564.73 1564.76 1564.88 1564.39 1563.89 1562.48 1561.51 1560.65 1560.03 1560.52 1559.78 1557.91 1557.89 1557.63 1557.28 1556.74 1556.43 1555.87 1555.61 1554.42 1553.94 1553.62 1553.15 1552.53 1552.02 1551.46 1551.11 1550.41 1550.07 1549.51 1549.09 1548.72 1548.48 1548 1547.74 1547.36 1547.17 1546.85 1546.6 1546.35 1546.26 1546.18 1546.95 1548.07 1549.65 1549.44 1548.29 1546.25 1544.14 1541.77 1540.56 1538.37 1536.95 1535.25 1534.36 1533.63 1533.95 1533.46 1532.57 1531.79 1531.77 1531.36 1530.19 1529.24 1528.72 1527.75 1527.8 1527.88 1528.16 1528.55 1528.81 1528.57 1528.65 1528.4 1527.72 1527.34 1526.67 1525.89 1525.85 1525.71 1525.73 1525.66 1525.42 1524.99 1524.47 1524.3 1524.55
1573.76 1572.61 1572.24 1572.56 1571.59 1570.63 1569.71 1568.03 1567.06 1566.89 1565.71 1564.99 1565.14 1564.98 1563.82 1563.08 1561.86 1560.95 1560.73 1560.55 1559.23 1557.93 1557.59 1557.64 1557.64 1557.29 1556.73 1556.29 1555.65 1555.24 1554.77 1554.37 1553.71 1553.13 1551.86 1551.51 1551.06 1550.47 1549.5 1549.79 1548.71 1548.31 1548.69 1548.4 1547.9 1547.72 1547.09 1546.83 1546.46 1546.29 1545.95 1545.67 1545.08 1544.72 1544.33 1544.43 1545.09 1545.88 1547.22 1547.43 1545.7 1544.2 1542.24 1540.65 1538.34 1536.84 1535.72 1534.95 1533.81 1533.24 1532.96 1532 1530.42 1530.48 1530.37 1529.17 1529.02 1528.67 1528.77 1529.13 1529.18 1529.22 1528.89 1528.37 1526.52 1526.12 1525.53 1525.49 1525.56 1525.25 1524.78 1524.94 1525.06 1524.85 1524.38 1524 1524.15 1524.96
1575.35 1574.09 1574.15 1573.25 1571.61 1570.51 1568.93 1568.47 1567.88 1567.19 1566.15 1565.82 1564.95 1564.81 1563.22 1562.85 1561.21 1560.51 1560.44 1560.24 1558.87 1558.51 1558.46 1557.77 1557.67 1557.34 1556.73 1556.34 1555.76 1555.39 1554.96 1554.49 1553.27 1551.76 1551.4 1551.46 1550.82 1550.4 1549.92 1549.75 1549.06 1548.07 1548.21 1548.39 1548.28 1548.21 1547.21 1547.22 1546.33 1546.11 1545.65 1545.55 1544.96 1544.65 1544.09 1543.89 1543.16 1542.84 1543.05 1544.03 1545.46 1545.34 1544.07 1542.77 1540.54 1539.2 1537.17 1536.65 1533.92 1533.44 1533.57 1532.87 1532.18 1531.88 1531.53 1530.75 1530.22 1529.99 1530 1529.55 1529.13 1529.2 1527.02 1526.58 1525.79 1525.49 1525.59 1525.4 1525.67 1525.33 1524.87 1524.79 1524.85 1524.22 1523.36 1523.43 1523.93 1524.25
1575.91 1575.66 1573.49 1572.89 1571.83 1571.3 1569.26 1568.9 1568.32 1567.65 1566.16 1565.75 1564.45 1563.61 1562.65 1561.76 1560.66 1560.72 1560.31 1559.16 1559.23 1559.35 1558.76 1557.69 1557.78 1557.48 1556.9 1556.56 1556.01 1555.75 1554.51 1552.89 1551 1550.88 1550.88 1551.01 1551.06 1550.75 1550.33 1550.04 1548.63 1547.99 1548.46 1547.47 1547.58 1548.02 1546.83 1546.62 1547.12 1545.75 1545.54 1545.31 1544.97 1544.53 1543.89 1543.51 1542.97 1542.52 1541.8 1541.02 1541.74 1541.02 1540.49 1540.4 1539.85 1539.47 1539 1538.43 1538.09 1536 1535.29 1534.45 1533.61 1533.05 1532.47 1531.6 1530.96 1530.95 1530.2 1529.06 1528.2 1527.42 1526.65 1525.86 1526.19 1526.3 1525.47 1525.72 1526.17 1525.72 1524.88 1524.59 1524.06 1524.17 1523.41 1522.59 1524.1 1523.63
1575.48 1574.4 1573.18 1572.42 1571.85 1571.24 1569.52 1569.61 1568.9 1567.44 1565.73 1564.68 1563.68 1562.96 1561.98 1561.39 1561.39 1561.1 1559.74 1559.84 1559.41 1559.33 1558.46 1557.75 1557.89 1557.59 1557.07 1556.8 1556.23 1555.79 1553.48 1551.92 1550.87 1550.93 1551.02 1550.03 1550.39 1551.11 1549.9 1549.9 1549.73 1548.27 1548.46 1547.01 1547.44 1548 1546.28 1546.18 1546.33 1545.55 1545.23 1544.86 1544.73 1544.34 1543.78 1543.37 1542.77 1542.33 1541.55 1540.94 1541.26 1541.01 1539.72 1539.58 1538.33 1538 1536.74 1536.5 1535.55 1534.74 1533.44 1532.54 1531.71 1530.95 1530.28 1529.68 1529.14 1528.11 1528.3 1528.02 1527.63 1527.32 1526.53 1526.09 1526.36 1526.4 1526.45 1526.11 1526.39 1525.96 1525.42 1524.68 1523.87 1523.65 1523.79 1522.91 1523.93 1522.93
1575.17 1573.9 1572.45 1572.3 1571.74 1570.97 1570.37 1569.54 1567.63 1566.01 1563.84 1564.3 1563.71 1562.54 1561.48 1561.39 1560.88 1560.01 1560.23 1559.63 1559.12 1558.68 1557.89 1558.25 1558.12 1557.94 1557.48 1557.19 1556.42 1555.91 1553.5 1552.06 1550.65 1550.33 1550.63 1550.23 1550.03 1550.5 1549.53 1549.41 1549.34 1548.94 1548.97 1547.64 1546.72 1546.4 1546.59 1545.91 1545.57 1545.68 1544.55 1544.18 1544.1 1543.9 1543.58 1543.24 1542.66 1542.18 1541.61 1540.72 1539.63 1539.86 1538.98 1538.09 1537.24 1536.96 1536.31 1535.9 1535.2 1534.34 1533.13 1532.47 1531.89 1531.28 1530.3 1529.4 1528.75 1528.07 1528.04 1528.5 1528.12 1528.3 1527.56 1527 1527.13 1527.24 1526.5 1526.03 1526.63 1526.04 1525.14 1525.49 1523.99 1523.67 1523.26 1523 1522.52 1522.51
1574.89 1573.7 1572.74 1572.32 1571.67 1571.22 1571.1 1569.82 1568.15 1566.93 1564.92 1564.93 1563.77 1562.53 1562.09 1561.81 1561.06 1560.3 1560.16 1559.47 1559.09 1558.67 1558.2 1558.58 1558.36 1558.18 1557.76 1557.22 1557.1 1556.16 1554.32 1552.71 1551.03 1550.69 1550.69 1550.36 1550.53 1550.11 1549.73 1549.48 1549.05 1548.97 1548.38 1546.77 1546.94 1546.38 1546.38 1545.81 1545.67 1545.78 1544.41 1544.1 1544.05 1543.47 1542.82 1542.97 1542.55 1542.06 1541.42 1541.02 1539.51 1538 1537.57 1536.66 1536.3 1536.12 1535.17 1535.46 1534.68 1534.18 1533.15 1532.75 1531.65 1531.1 1529.98 1529.65 1528.76 1528.7 1528.51 1528.68 1528.73 1528.46 1528.31 1527.87 1527.31 1527.24 1526.54 1526.07 1526.84 1526.32 1525.6 1525.85 1524.54 1523.64 1523.46 1523.69 1522.78 1522.43
1575.98 1575 1574.49 1574.46 1573.97 1573.62 1571.51 1569.77 1567.11 1566.17 1565.05 1564.01 1563.2 1562.09 1561.77 1561.9 1561.32 1561.46 1559.48 1559.29 1559.31 1559.21 1558.77 1558.79 1558.79 1558.54 1557.96 1557.3 1556.66 1555.57 1554.08 1552.59 1550.67 1550.48 1550.44 1550.02 1550.06 1549.74 1549.33 1549.15 1548.88 1548.49 1548.26 1547.31 1546.27 1545.97 1546.51 1545 1545.33 1544.78 1544.96 1544.23 1543.81 1543.42 1542.74 1542.06 1541.58 1541.87 1541.3 1540.84 1540.13 1539.64 1538.02 1536.2 1534.84 1535.12 1534.42 1534.16 1533.68 1533.65 1532.88 1532.06 1531.02 1530.81 1530.26 1530.04 1529.47 1529.04 1528.82 1528.59 1528.94 1528.78 1528.24 1528.11 1527.44 1527.39 1526.85 1526.32 1526.64 1526.38 1525.63 1525.43 1525.32 1525.04 1524.4 1524.14 1522.67 1522.58
1577.7 1576.92 1576.05 1575.45 1573.96 1573 1570.93 1569.54 1566.35 1565 1564.19 1563.82 1563.15 1562.46 1562.3 1562.09 1561.78 1561.48 1559.31 1559.6 1560.34 1559.93 1559.32 1559.12 1559.06 1558.85 1558.07 1557.52 1556.94 1555.8 1554.08 1552.59 1551.25 1551.13 1551.1 1550.56 1549.73 1549.58 1548.9 1548.43 1548.05 1548.11 1548.26 1547.58 1546.63 1546.69 1546.65 1545.89 1544.98 1544.84 1545.41 1545.01 1543.79 1543.49 1542.9 1542.13 1540.91 1540.38 1540.91 1540.59 1540.03 1539.62 1538.98 1538.23 1535.18 1534.98 1534.04 1533.23 1532.62 1532.87 1532.86 1531.98 1530.88 1530.7 1530.38 1530.3 1529.13 1529.31 1529.29 1528.87 1529.24 1529.16 1528.48 1527.96 1527.62 1527.51 1527.22 1526.57 1526.65 1526.6 1526.03 1526.1 1525.47 1525.11 1525.34 1524.48 1523.14 1522.41
1579.32 1578.26 1576.23 1574.74 1574.53 1573.35 1569.69 1567.32 1565.59 1565.16 1564.17 1564.1 1563.53 1563.19 1563.16 1563.39 1563.32 1562.95 1561.83 1561.13 1560.11 1559.82 1559.46 1559.7 1559.41 1558.88 1557.85 1557.99 1557.23 1556.19 1554.72 1553.66 1552.39 1552.08 1551.8 1551.03 1550.4 1550.03 1549.07 1548.39 1547.6 1547.25 1547.1 1546.8 1546.84 1546.91 1546.58 1546.73 1545.44 1545.61 1545.28 1544.99 1544.67 1544.55 1544.81 1543.66 1540.91 1539.7 1539.27 1539.16 1539.72 1539.35 1538.72 1538.31 1537.36 1536.96 1534.46 1533.78 1532.55 1532.28 1531.95 1531.25 1530.62 1530.24 1530.47 1530.6 1529.64 1529.04 1529.54 1529.59 1529.64 1529.21 1528.73 1528.5 1527.63 1527.4 1527.19 1526.63 1526.84 1526.5 1526.61 1526.4 1526.14 1525.75 1524.27 1523.22 1522.49 1521.93
1578.64 1579.11 1577.79 1577.35 1574.02 1571 1568.18 1566.66 1566.78 1565.49 1564.3 1564 1563.48 1563.23 1563.13 1563.28 1563.78 1563.46 1563.71 1562.25 1560.77 1559.87 1559.99 1559.96 1559.7 1558.68 1558.11 1557.44 1556.55 1556.07 1555.19 1553.89 1552.91 1554.02 1552.05 1551.2 1550.65 1550.11 1549.35 1548.98 1547.96 1547.55 1546.99 1546.79 1546.81 1546.68 1546.77 1546.57 1546.31 1545.98 1545.6 1545.17 1546.24 1547.02 1547.24 1545.54 1542.69 1540.63 1538.96 1538.66 1538.28 1538.74 1538.59 1538.22 1537.36 1537.06 1536.14 1535.1 1532.78 1532.23 1531.99 1531.41 1531.11 1530.11 1530.47 1531.18 1530.13 1529.5 1529.81 1529.85 1529.73 1529.19 1528.21 1528.59 1527.69 1527.55 1526.82 1526.61 1526.95 1526.79 1526.35 1526.36 1525.34 1524.52 1523.56 1522.96 1522.61 1522.18
1575.89 1575.32 1573.91 1573.37 1571.71 1570.5 1567.65 1566.94 1565.85 1565.06 1564.56 1563.7 1563.79 1563.56 1563.46 1563.5 1563.56 1563.02 1562.68 1562.28 1560.8 1560.14 1560.63 1560.42 1559.94 1558.62 1557.63 1557.23 1557.16 1556.18 1555.02 1554.44 1554.97 1555.64 1554.01 1553.57 1552.38 1551.67 1550.63 1549.78 1548.52 1547.76 1547.25 1547.22 1547.08 1546.95 1546.71 1546.4 1546.25 1546.16 1545.86 1546.44 1548.12 1548.82 1549.63 1550.25 1547.62 1545.83 1542.76 1539.91 1538.04 1537.41 1536.94 1537.12 1537.18 1536.77 1536.02 1535.67 1534.91 1533.81 1531.98 1531.52 1531.48 1530.89 1530.94 1530.86 1531.14 1530.2 1530.11 1529.57 1529.62 1529.37 1528.2 1528.38 1527.76 1527 1526.47 1526.62 1526.26 1525.86 1525.41 1525.03 1524.5 1524.1 1523.66 1523.31 1522.78 1522.4
1574.72 1573.15 1572.07 1570.87 1570.08 1569.59 1568.54 1567.99 1566.99 1565.81 1564.17 1563.94 1563.9 1563.58 1563.11 1562.73 1562.46 1562.07 1562.3 1562.01 1560.79 1561.02 1560.98 1560.7 1560.18 1558.76 1558.61 1558.11 1557.35 1556.58 1555.69 1556.41 1556.67 1556.3 1556.44 1554.92 1552.03 1551.03 1550.1 1548.91 1548.33 1547.93 1547.42 1547.17 1547.46 1547.29 1546.8 1546.46 1546.08 1546.07 1545.9 1546.02 1547.88 1548.7 1551.39 1552.1 1550.16 1548.31 1545.96 1544.43 1539.96 1538.62 1536.8 1536.25 1536.23 1536.49 1535.99 1535.57 1534.92 1534.41 1533.38 1532.29 1531.26 1530.66 1531.06 1531.17 1530.85 1529.91 1530.4 1529.57 1529.71 1529.68 1528.42 1528.5 1527.61 1526.35 1525.91 1525.79 1526.23 1525.73 1525.36 1524.97 1524.54 1524.27 1523.75 1523.54 1522.88 1522.52
1574.17 1572.61 1571.32 1571.47 1571.78 1571.78 1570.85 1569.83 1568.06 1568.21 1567.32 1567.03 1567.07 1566.86 1565.57 1563.73 1561.81 1561.77 1561.9 1561.88 1561.39 1561.35 1561.36 1561.06 1560.52 1559.89 1559.52 1558.92 1557.89 1557.98 1557.43 1557.67 1557.75 1559.13 1558.06 1556.54 1553 1549.86 1548.32 1547.42 1547.27 1547.39 1546.94 1547.27 1546.86 1546.71 1546.22 1546.08 1545.79 1545.6 1545.33 1545.06 1547.01 1548.81 1547.81 1548.98 1546.9 1545.79 1544.63 1544.17 1542.9 1540.86 1537.73 1536.13 1533.68 1533.65 1534.71 1535.12 1534.64 1534.28 1533.53 1533.18 1532.37 1531.68 1530.83 1530.73 1530.86 1530.36 1529.87 1529.28 1529.62 1528.92 1528.45 1528.43 1526.6 1526.17 1526.4 1526.57 1526.21 1525.94 1525.41 1525.17 1524.75 1524.49 1523.98 1523.82 1524.3 1524.88
1572.79 1571.96 1571.22 1571.94 1572.94 1572.84 1571.24 1570.36 1570.67 1572.08 1570.11 1569.01 1567.79 1567.36 1565.36 1564.08 1562.3 1561.98 1561.86 1562.04 1561.69 1561.89 1561.54 1561.35 1560.79 1560.13 1559.38 1559.12 1559.37 1558.49 1558.51 1557.5 1555.78 1556.1 1554.99 1552.97 1550.81 1549.88 1548.68 1547.96 1547.17 1547.53 1547.34 1547.45 1547.3 1546.48 1546.19 1546.3 1545.42 1545.42 1545.23 1544.46 1544.36 1546.13 1547.24 1545.55 1546.31 1545.15 1543.76 1542.22 1540.7 1538.04 1535.97 1534.56 1533.13 1532.97 1532.32 1533.29 1534.4 1533.91 1533.49 1533.04 1532.52 1532.16 1531.36 1531.21 1530.59 1530.59 1529.87 1529.83 1529.31 1528.66 1528.18 1528.03 1527.44 1527.42 1527.17 1526.71 1526.33 1526.08 1525.58 1525.36 1524.78 1524.4 1523.81 1524.25 1525.17 1525.36
1573.7 1574.15 1573.03 1573.3 1573.42 1573.06 1573.18 1573.48 1574.69 1573.83 1569.93 1567.99 1565.54 1565.95 1564.54 1563.47 1562.43 1562.49 1561.92 1561.83 1562.51 1562.35 1561.96 1561.61 1560.99 1560.26 1560.68 1559.49 1559.53 1559.74 1560.33 1559.86 1556.81 1554.58 1552.6 1552.53 1550.61 1550.92 1549.94 1549.95 1549.51 1549.04 1548.22 1548.05 1547.64 1547.19 1546.66 1546.55 1545.9 1545.32 1544.19 1544.15 1543.04 1542.52 1542.89 1543.27 1543.21 1542.84 1541.45 1540.25 1538.63 1537.35 1535.69 1534.11 1532.29 1532.26 1532.02 1531.71 1532.3 1533.44 1533.15 1532.83 1532.38 1531.93 1531.56 1531.26 1530.51 1530.21 1529.93 1529.54 1529.08 1528.68 1528.57 1528.32 1527.84 1527.55 1527.22 1526.89 1526.49 1526.14 1525.49 1524.53 1523.48 1523.16 1523.43 1523.74 1524.13 1523.68
1574.51 1574.26 1574.26 1575.12 1574.55 1574.59 1575.47 1575.66 1574.23 1572.88 1568.54 1566.28 1565.81 1565.73 1563.79 1563.08 1562.65 1562.75 1562.1 1562.11 1562.9 1562.61 1562.23 1561.96 1561.04 1560.59 1560.46 1560.63 1560.56 1561.22 1559.61 1559.43 1556.66 1555.6 1553.57 1552.33 1551.75 1552.22 1552.97 1552.81 1552.02 1551.55 1550.55 1549.38 1548.58 1548.31 1547.66 1547.25 1546.44 1545.97 1544.85 1544.37 1542.27 1541.77 1541.19 1540.43 1541.17 1540.73 1539.69 1538.98 1537.29 1535.69 1534.61 1534.37 1533.82 1533.39 1532.68 1532.16 1532.05 1532.66 1533.14 1532.78 1532.27 1531.92 1531.5 1531.11 1530.72 1530.3 1529.83 1529.64 1529.24 1529.01 1528.59 1528.32 1527.95 1527.71 1527.22 1526.89 1526.42 1525.4 1523.6 1523.39 1523.14 1522.96 1523.07 1523.22 1523.2 1523.05
1576.99 1576.84 1576.84 1577.14 1577.13 1576.64 1576.5 1575.26 1572.15 1571.33 1568.9 1567.67 1566.79 1564.71 1563.4 1563.57 1562.83 1562.67 1562.54 1563.3 1563.34 1563.06 1562.61 1562.25 1561.04 1561.33 1560.97 1560.7 1560.46 1560.33 1558.61 1558.07 1557.73 1557.27 1554.88 1555.17 1555.99 1554.83 1553.22 1552.62 1553.33 1553.18 1551.01 1550.74 1549.53 1550 1549.76 1549.55 1547.84 1546.96 1546.19 1545.35 1544.13 1543.13 1541.61 1541.36 1541.52 1540.97 1539.83 1539.19 1538.02 1537.46 1536.99 1536.69 1535.4 1534.44 1534.16 1533.55 1532.52 1531.67 1532.83 1532.54 1532.27 1531.86 1531.26 1531.01 1530.71 1530.44 1529.94 1529.77 1529.45 1529.18 1528.93 1528.45 1528.15 1527.9 1526.46 1525.82 1524.95 1524.49 1524.14 1523.87 1522.66 1522.67 1522.47 1522.17 1521.57 1521.87
1578.78 1578.55 1577.64 1577.6 1576.4 1575.7 1574.2 1573.37 1571.77 1571.45 1569.27 1568.77 1566.57 1564.01 1563.82 1563.52 1563.11 1562.88 1563.4 1563.98 1563.56 1563.35 1562.8 1562.53 1561.78 1561.14 1561.08 1560.91 1560.34 1560.03 1559.41 1558.58 1558.06 1557.68 1557.59 1557.23 1555.32 1554.71 1553.14 1553.28 1553.74 1552.69 1549.56 1548.47 1548.21 1548.69 1549.2 1549.46 1548.55 1547.43 1546.48 1545.61 1544.95 1544.21 1542.38 1542.07 1541.84 1541.41 1540.67 1539.67 1538.39 1538.17 1537.97 1536.57 1534.49 1533.81 1533.46 1532.97 1531.8 1531.58 1532.82 1532.6 1532.12 1531.78 1531.38 1531.09 1530.84 1530.41 1530.07 1529.86 1529.56 1529.22 1528.86 1528.56 1528.11 1526.93 1525.97 1525.66 1525.13 1525.3 1524.8 1524.21 1523.37 1523.11 1523.03 1522.36 1521.97 1522.53
1578.26 1577.08 1577.19 1575.93 1574.67 1573.8 1572.63 1572.01 1571.09 1570.69 1569.66 1567.33 1565.12 1564.73 1564.14 1563.8 1563.19 1562.76 1564.4 1564.45 1564.11 1563.79 1563.13 1562.11 1561.64 1560.83 1561.2 1561.21 1560.54 1560.11 1559.81 1559.83 1559.95 1559.66 1559.47 1557.61 1555.37 1555.1 1553.56 1553.63 1553.07 1552.31 1551.66 1550.14 1547.65 1546.56 1546.85 1547.34 1547.56 1546.82 1547.65 1546.62 1544.93 1544.23 1543.22 1542.7 1542.27 1541.8 1541.43 1540.54 1539.52 1539.07 1538.66 1537.27 1534.89 1533.6 1532.17 1531.93 1531.12 1532.18 1532.65 1532.58 1532.05 1531.79 1531.42 1531.31 1530.87 1530.51 1530.25 1530.07 1529.64 1529.33 1528.78 1528.51 1527.63 1526.22 1525.84 1525.41 1524.99 1525.02 1525.14 1525.14 1525.07 1524.39 1523.97 1523.46 1522.9 1522.91
1578.22 1577.45 1575.8 1575.51 1572.85 1572.52 1571.2 1571.54 1571.63 1571.46 1568.17 1566.89 1565.43 1564.88 1564.42 1563.78 1563.17 1563.35 1565 1564.73 1564.36 1563.95 1562.37 1561 1561.27 1560.27 1560.52 1560.4 1559.81 1559.25 1559.6 1560.06 1560.15 1561.3 1560.03 1557.48 1556.23 1555.29 1553.07 1552.73 1551.98 1552.25 1552.76 1552.14 1549.47 1547.4 1545.62 1545.64 1545.76 1545.05 1545.42 1546.27 1545.51 1544.29 1543.86 1543.73 1542.44 1541.61 1540.68 1539.96 1538.89 1538.68 1538.01 1537.08 1534.64 1534.33 1532.24 1531.8 1531.36 1533.12 1532.84 1532.61 1532.09 1531.95 1531.6 1531.32 1530.94 1530.7 1530.25 1530.07 1529.61 1528.96 1528.58 1528.07 1526.99 1526.5 1525.77 1525.68 1524.98 1525.1 1525.34 1525.69 1525.13 1524.83 1524.26 1524.34 1524.03 1524.05
1579.6 1578.64 1575.95 1574.11 1573.12 1571.6 1570.9 1569.86 1569.36 1568.61 1567.05 1566.83 1565.88 1565.31 1564.7 1564.47 1565.03 1565.56 1565.47 1565.12 1564.83 1563.19 1561.15 1560.57 1560.18 1560.14 1560.11 1559.64 1559.04 1558.89 1558.28 1558.07 1558.26 1558.85 1557.35 1555.64 1553.95 1553.54 1551.65 1551.54 1551.01 1551.39 1550.27 1550.5 1551.15 1549.63 1545.69 1544.48 1544.03 1541.84 1542.79 1544.04 1543.74 1543.7 1543.37 1542.16 1540.98 1538.09 1537.33 1536.67 1535.21 1535.38 1534.37 1534.54 1532.87 1531.71 1531.76 1531.45 1532.93 1533.31 1532.98 1532.73 1532.33 1532.12 1531.76 1531.51 1531.04 1530.78 1529.79 1528.96 1527.96 1528.07 1527.84 1527.9 1527.08 1526.92 1525.59 1525.65 1525.2 1525.11 1525.11 1525.23 1524.91 1525.29 1524.97 1524.16 1524.43 1524.59
1579.49 1578.39 1575.67 1576.12 1572.36 1571.99 1570.98 1569.82 1568.46 1567.57 1568.39 1567.92 1566.47 1566.35 1565.55 1565.64 1566.09 1565.92 1565.7 1565.61 1564.21 1563.87 1561.62 1561.78 1560.34 1559.81 1559.56 1559.1 1559.45 1559.2 1558.55 1558.58 1558.27 1557.62 1556.44 1555.49 1553.58 1552.97 1552.43 1552.36 1551.89 1551.51 1550.06 1549.17 1549.76 1549.4 1546.36 1544.09 1543.05 1541.34 1542.24 1542.59 1542.59 1542.2 1541.2 1540.3 1538.36 1537.34 1536.75 1536.2 1535.71 1535.01 1534.17 1533.75 1532.65 1531.87 1531.52 1532.07 1533.69 1533.51 1533.1 1532.9 1532.58 1532.14 1531.94 1531.6 1530.55 1530.21 1528.98 1528.62 1528.12 1527.99 1527.45 1527.32 1526.48 1526.45 1526.24 1525.67 1525.59 1526.31 1525.88 1525.55 1525.58 1525.5 1525.12 1524.52 1524.54 1524.56
1577.62 1577.79 1576.45 1575.62 1573.57 1571.47 1569.85 1569.63 1568.36 1569.04 1570.3 1569.29 1567.48 1567.72 1567.61 1567.47 1566.97 1566.54 1566.26 1565.71 1563.6 1563.11 1562.22 1562.53 1561.06 1560.61 1559.03 1559.36 1559.46 1558.85 1558.76 1558.49 1558.17 1557.44 1557.08 1556.99 1556.87 1555.27 1554.2 1552.76 1551.93 1551.52 1549.7 1548.57 1546.59 1545.77 1545.44 1544.19 1544.48 1543.52 1542.54 1541.89 1540.15 1539.75 1539.09 1538.1 1538.03 1537.46 1537.42 1536.84 1536.45 1535.62 1534.22 1533.63 1532.88 1532.71 1532.06 1533.14 1534.03 1533.77 1533.44 1533.21 1532.84 1532.46 1531.31 1530.15 1529.48 1529.26 1528.78 1528.15 1528.21 1528.23 1528.05 1527.72 1526.97 1526.96 1526.47 1526.12 1526.86 1527.13 1527.11 1527.2 1525.92 1525.01 1524.23 1524.1 1524.13 1524.01
1577.48 1577.51 1576.58 1575.33 1572.41 1570.98 1570.18 1569.63 1569.06 1569.84 1570.13 1569.74 1568.88 1568.34 1568.34 1567.81 1566.88 1566.77 1566.67 1565.3 1563.77 1563.39 1563.02 1563.3 1560.83 1559.93 1559.47 1559.87 1559.69 1559.54 1559.04 1558.26 1557.86 1557.38 1556.97 1557.82 1558.54 1557.58 1554.8 1553.12 1551.94 1551.53 1549.54 1547.97 1545.25 1544.61 1544.19 1543.07 1542.28 1542.5 1541.31 1540.8 1540.56 1539.7 1539.18 1538.53 1538.58 1537.84 1537.86 1537.29 1536.87 1536 1534.19 1533.65 1533.36 1533.07 1533.22 1534.44 1534.2 1534.01 1533.61 1533.3 1532.8 1531.98 1530.38 1530.04 1530.26 1530.22 1530.09 1529.66 1528.89 1528.4 1528.88 1528.3 1527.64 1527.54 1527.56 1527.21 1527.42 1528.46 1528.31 1527.99 1526.4 1525.97 1524.44 1524.34 1524.11 1524.13
1575.64 1575.52 1573.66 1572.83 1571.93 1571.51 1570.6 1570.4 1570.4 1570.75 1571.51 1571.56 1570.61 1569.7 1569.19 1568.38 1567.34 1567.21 1566.62 1565.16 1564.39 1564.09 1563.31 1562.23 1559.82 1560.17 1560.45 1560.21 1560.26 1559.8 1559.17 1558.76 1557.43 1556.84 1555.81 1555.69 1555.77 1556.07 1554.83 1552.33 1550.36 1549.6 1548.74 1549.08 1547.91 1546 1543.37 1542.03 1541.65 1541.55 1540.84 1540.65 1540.7 1539.97 1539.8 1539.23 1538.6 1538.22 1536.95 1536.79 1536.2 1534.91 1534.5 1534.35 1534.17 1534.15 1535.3 1535.05 1534.6 1534.37 1533.85 1533.44 1530.4 1529.97 1530.08 1530.25 1530.71 1531.12 1531.23 1531.06 1530.8 1530.56 1530.38 1530.6 1529.4 1528.68 1529.22 1531.24 1530.01 1530.17 1530.43 1530.69 1528.54 1526.81 1525.68 1525.14 1525.51 1525.43
1575.02 1574.52 1573.54 1572.89 1572.14 1571.76 1571.05 1570.65 1571.05 1571.5 1571.96 1571.82 1570.83 1570.56 1569.31 1568.47 1567.75 1567.53 1565.98 1565.71 1564.99 1563.47 1561.67 1560.48 1560.54 1560.87 1560.47 1560.51 1560.3 1559.73 1558.9 1558.05 1556.54 1555.89 1554.76 1554.46 1554.97 1553.74 1552.87 1553.01 1549.44 1548.83 1547.42 1547.66 1547.74 1546.14 1543.86 1541.73 1541.78 1541.49 1541.18 1541.02 1540.72 1540.37 1540.04 1539.49 1538.3 1537.68 1536.62 1536.61 1536.11 1535.88 1535.56 1534.86 1534.46 1535.4 1535.62 1535.15 1534.79 1534.56 1533.66 1531.67 1529.67 1529.8 1530.13 1529.87 1530.45 1530.54 1531.51 1531.69 1531.32 1531.47 1531.62 1530.99 1530.54 1530 1530.67 1529.87 1529.43 1529.83 1531.04 1531.12 1529.76 1527.82 1526.13 1525.58 1525.16 1525.25
1575.23 1574.88 1573.98 1573.67 1572.79 1572.28 1572.14 1572.15 1572.62 1572.57 1572.15 1571.17 1571.69 1571.65 1569.36 1568.28 1568.17 1567.88 1565.02 1563.7 1562.2 1561.93 1560.78 1561.2 1561.22 1560.79 1560 1559.96 1559.38 1559.61 1560.29 1559.59 1558.11 1556.37 1555.13 1553.93 1552.17 1551.36 1549.25 1548.29 1547.45 1546.95 1545.95 1545.46 1544.92 1544.29 1542.52 1541.68 1541.84 1541.93 1541.35 1541.35 1541.07 1540.46 1540.35 1539.21 1538.55 1537.82 1537.49 1537.47 1537.98 1537.58 1536.32 1535.68 1536.27 1536.46 1535.93 1535.63 1535.27 1534.96 1532.51 1531.08 1530.9 1531.39 1531.84 1531.81 1531.76 1530.92 1530.98 1530.72 1530.7 1531.65 1531.99 1532.37 1531.45 1530.59 1529.95 1529.34 1529.25 1529.03 1530.03 1530.53 1529.82 1528.61 1527.22 1525.83 1524.66 1524.18
1576.21 1575.49 1574.65 1574.64 1574 1573.22 1573.01 1572.94 1572.97 1572.89 1571.87 1571.55 1572.3 1571 1569.08 1568.68 1568.45 1567.39 1564.67 1562.82 1562.5 1562.47 1560.99 1560.83 1560.98 1560.68 1560.93 1559.7 1559.84 1560.5 1559.8 1559.04 1558.65 1558.04 1557.18 1555.63 1552.28 1550.73 1548.87 1547.78 1547.23 1546.24 1545.65 1545.17 1544.73 1544.03 1542.59 1542.28 1541.94 1541.97 1541.69 1541.67 1540.96 1540.17 1539.35 1538.61 1538.48 1538.18 1537.91 1537.89 1539.11 1538.09 1536.77 1536.55 1536.83 1536.67 1536.3 1535.92 1535.66 1534.63 1531.44 1531.28 1530.33 1530.49 1532 1532.87 1532.96 1532.81 1532.97 1532.65 1532.44 1531.75 1532.45 1532.38 1530.72 1530.31 1530.47 1529.99 1529.54 1528.62 1529.36 1530.01 1528.93 1528 1527.43 1526.23 1525.51 1525.21
1575.26 1574.58 1574.43 1574 1573.92 1573.77 1573.65 1573.56 1573.48 1572.76 1572.3 1571.75 1571.45 1570.85 1569.17 1569.15 1568.83 1567.02 1565.12 1563.91 1562.64 1561.98 1561.75 1561.74 1561.36 1560.71 1559.63 1558.62 1558.07 1558.16 1556.91 1556.6 1555.52 1554.93 1554.68 1554.42 1552.45 1550.55 1548.61 1547.62 1547.19 1546.6 1545.94 1545.27 1544.25 1544.11 1543.86 1543.13 1543.56 1543.11 1543.58 1542.63 1541.24 1541.05 1539.87 1539.36 1538.87 1538.6 1538.93 1538.84 1538.19 1537.61 1537.18 1537.62 1537.33 1537.1 1536.61 1536.38 1536.05 1534.79 1532.54 1533.48 1531.69 1531.46 1532.01 1532.28 1533.01 1532.2 1531.6 1531.62 1530.53 1531.46 1531.77 1531.79 1531.56 1531.34 1530.74 1529.96 1528.72 1528.43 1527.97 1527.95 1528.33 1528.27 1527.36 1526.93 1526.67 1526.09
1575.19 1575.09 1574.5 1574.36 1574.12 1573.54 1573.21 1572.81 1572.99 1572.32 1571.75 1571.23 1571.25 1570.61 1569.54 1569.41 1568.69 1567.61 1565.93 1564.34 1562.57 1562.88 1561.85 1561.82 1561.91 1560.97 1558.89 1557.98 1557.35 1556.98 1556.54 1555.95 1554.59 1553.91 1551.98 1551.83 1551.09 1549.73 1548.24 1547.4 1547.16 1546.73 1545.99 1545.7 1545.17 1545.29 1544.4 1543.71 1544.37 1544.41 1542.22 1541.96 1540.86 1539.74 1537.93 1538.3 1538.37 1537.59 1537.99 1538.19 1537.64 1537.76 1537.62 1537.82 1537.45 1537.36 1536.92 1536.65 1536.7 1535.42 1534.17 1534.82 1533.5 1531.47 1530.98 1531.31 1531.21 1531.19 1531.59 1531.01 1530.58 1530.84 1531.16 1530.85 1530.56 1530.33 1530.1 1529.84 1528.38 1528.17 1527.87 1527.82 1527.61 1527.68 1527.47 1526.48 1526.78 1526.18
1575.93 1575.28 1574.75 1575.24 1573.95 1573.54 1573.03 1572.57 1572.41 1572.07 1571.56 1572.3 1571.44 1570.15 1570.03 1569.74 1567.37 1566.11 1564.2 1563.09 1561.62 1561.1 1561.38 1560.8 1560.54 1559.57 1558.61 1557.55 1556.86 1556.52 1555.51 1554.49 1551.89 1551.75 1551.05 1550.34 1549.95 1549.19 1547.99 1547.08 1546.67 1546.54 1546.46 1546.5 1545.91 1545.12 1544.8 1543.85 1542.74 1542.26 1540.78 1539.93 1539.01 1537.86 1536.91 1537 1536.25 1536.19 1535.96 1536.88 1538.23 1538.24 1538.28 1538.2 1537.94 1537.69 1537.33 1537.12 1537.13 1536.89 1536.23 1535.23 1534.51 1533.53 1530.11 1530.84 1531.48 1531.27 1529.47 1529.15 1528.67 1528.86 1529.12 1529.45 1528.45 1527.54 1527.97 1528 1528.09 1528.01 1527.72 1527.51 1527.02 1527.22 1526.96 1526.66 1525.94 1525.06
1575.63 1576.02 1575.55 1575.25 1573.75 1573.41 1572.89 1571.43 1571.48 1571.39 1570.96 1571.08 1570.47 1570.51 1570.29 1569.72 1565.66 1564.81 1563.88 1562.8 1561.37 1560.54 1561.01 1561.03 1560.24 1559.85 1558.8 1557.84 1556.67 1556.14 1554.89 1553.33 1551.64 1550.84 1550.02 1549.25 1549.22 1549.54 1548.19 1547.36 1546.42 1545.65 1545.44 1545.75 1545.65 1544.21 1543.65 1543.56 1542.18 1542.16 1541.31 1540.74 1539.38 1538.64 1536.69 1536.94 1536.46 1536.32 1535.4 1537.68 1538.98 1538.88 1538.74 1538.45 1538.15 1537.92 1537.61 1537.46 1537.42 1537.07 1536.28 1535.62 1535.14 1533.99 1531.67 1532.13 1531.36 1531.12 1528.74 1527.03 1526.34 1526.32 1526.9 1526.9 1526.55 1524.9 1526.16 1526.33 1526.55 1527.62 1527.18 1527.25 1526.89 1526.84 1526.96 1526.72 1525.39 1524.53
1579.39 1578.65 1575.57 1574.98 1573.44 1572.45 1571.6 1570.76 1569.99 1569.74 1569.25 1569.49 1571.06 1570.99 1570.72 1568.86 1565.5 1564.04 1563.08 1561.67 1560.65 1561.04 1561.05 1560.93 1561.56 1561.41 1561 1560.44 1559.2 1558.16 1555.87 1554.3 1553.56 1552.87 1550.71 1548.74 1548.73 1546.99 1546.42 1546.1 1545.5 1544.96 1543.93 1543.24 1544.15 1543.95 1543.85 1543.47 1542.57 1542.37 1541.82 1541.32 1539.87 1538.98 1537.34 1537.12 1537.03 1536.79 1537.79 1539.84 1539.75 1539.27 1538.79 1538.72 1538.53 1538.3 1537.92 1537.35 1535.08 1534.54 1535.05 1534.93 1535.09 1534.52 1533.53 1532.84 1532.2 1530.9 1528.96 1527.77 1527.13 1526.28 1525.67 1525.86 1525.04 1524.04 1523.73 1523.71 1523.82 1525.02 1525.06 1525.11 1526.09 1525.7 1526.79 1526.72 1524.74 1523.99
1579.28 1576.51 1575.85 1575.98 1575.61 1573.42 1571.5 1571.14 1570.5 1569.52 1569.22 1569.61 1571.53 1571.34 1570.83 1568.3 1564.66 1563.43 1562.68 1561.5 1561.49 1562.13 1562.26 1562.77 1563.16 1563.26 1562.74 1562.39 1561.58 1560.37 1559.06 1557.74 1556.35 1554.99 1552.78 1551.01 1548.41 1546.86 1545.78 1545.31 1544.89 1544.61 1543.56 1543.38 1544.33 1544.15 1544.25 1543.6 1543.06 1542.78 1542.09 1541.2 1540.1 1539.17 1537.99 1537.65 1537.13 1536.92 1539.63 1540.47 1539.89 1539.7 1539.08 1538.94 1538.73 1538.55 1538.19 1537.18 1535.13 1535.23 1536.05 1535.59 1534.31 1533.79 1532.95 1531.8 1530.39 1529.34 1528.37 1528.04 1527.4 1527.19 1526.26 1526.11 1525.58 1524.37 1523.75 1523.79 1523.6 1523.34 1523.45 1523.62 1524.69 1524.75 1526.26 1525.99 1524.61 1523.51
1580.56 1578.33 1577.93 1577.86 1576.99 1575.43 1572.24 1571.53 1570.44 1569.38 1569.01 1571.47 1571.9 1571.74 1569.99 1566.49 1564.46 1563.07 1563.13 1562.67 1562.75 1563.34 1563.39 1563.38 1563.61 1563.8 1563.73 1563.95 1563.84 1562.82 1561.57 1561.02 1559.33 1557.59 1554.88 1553.51 1551.17 1549.7 1548.45 1548.24 1547.62 1546.48 1545.29 1544.98 1545.23 1545.24 1544.84 1544.59 1543.85 1543.35 1541.93 1540.92 1540.49 1539.12 1538.18 1537.69 1538.1 1539.64 1541.05 1540.85 1539.99 1539.68 1539.3 1539.26 1539.03 1538.94 1538.69 1537.72 1535.7 1536.8 1536.05 1534.05 1532.14 1531.23 1530.72 1530.32 1529.79 1529.45 1528.88 1528.52 1527.89 1527.51 1526.96 1526.78 1526.02 1525.16 1524.07 1524.19 1523.7 1523.24 1522.79 1522.55 1522.49 1522.49 1523.46 1523.92 1522.57 1521.24
1580.31 1580.23 1578.97 1577.99 1576.77 1575.88 1572.95 1571.28 1570.31 1569.37 1568.9 1572.29 1572.19 1571.98 1569.09 1566.06 1564.67 1563.79 1563.44 1563.23 1563.33 1563.51 1563.5 1563.72 1563.65 1563.49 1563.39 1563.89 1563.62 1563.26 1561.98 1561.24 1560.44 1558.72 1555.99 1554.88 1552.19 1551.03 1549.95 1549.43 1548.85 1547.93 1546.73 1546.28 1546.63 1546.57 1545.92 1545.69 1545.15 1544.37 1542.82 1542.15 1541.25 1539.87 1538.28 1537.97 1539.34 1540.04 1541.46 1540.95 1540.12 1540.2 1539.52 1539.24 1539.24 1539.03 1538.99 1537.96 1536 1537.29 1535.85 1533.93 1532.21 1531.48 1530.59 1530.32 1529.95 1529.7 1529.16 1528.92 1528.26 1527.76 1527.15 1527.07 1526.3 1525.26 1524.24 1524.38 1523.85 1523.45 1522.48 1522.32 1521.76 1521.53 1521.17 1521.54 1520.21 1519.68
1580.98 1580.78 1579.67 1578.63 1577.71 1576.47 1573.32 1571.9 1570.01 1569.85 1571.81 1573.06 1572.63 1572.06 1568.41 1567 1565.33 1564.27 1563.82 1563.63 1563.5 1563.59 1563.22 1563.12 1562.84 1562.66 1562.74 1562.66 1562.52 1561.84 1561.2 1561.24 1560.24 1559.18 1557.33 1555.49 1553.32 1552.15 1551 1550.08 1549.4 1548.76 1548.69 1548.82 1548.34 1548.12 1548.01 1547.46 1545.6 1544.87 1544.06 1543.53 1542.78 1541.54 1539.09 1539.08 1540.99 1542.11 1542.86 1542.16 1541.19 1540.53 1540.6 1539.56 1539.45 1539.38 1539.18 1538.15 1536.68 1537.15 1535.16 1534.2 1532.17 1531.75 1531.18 1530.8 1530.16 1529.97 1529.49 1529.31 1528.68 1528.38 1527.61 1527.35 1527.1 1525.93 1524.56 1524.69 1524.47 1523.92 1523.4 1523.33 1522.56 1522.13 1521.3 1520.81 1520.62 1520.03
1580.64 1580.1 1579.08 1578.63 1578.08 1577.07 1573.23 1571.7 1571.37 1571.44 1573.2 1573.33 1573.01 1572.74 1568.18 1566.9 1565.54 1564.37 1563.83 1563.71 1563.48 1563.47 1563.03 1562.92 1562.87 1562.85 1562.57 1562.13 1561.57 1560.93 1561 1561.02 1560.18 1558.92 1557.42 1555.89 1553.73 1552.38 1551.68 1550.9 1550.58 1550.89 1550.71 1550.88 1550.43 1550.49 1550.52 1548.98 1545.66 1544.37 1544.11 1543.59 1542.72 1541.67 1540.74 1541.17 1543.28 1543.84 1544.09 1543.73 1542.95 1542.45 1542.11 1540.8 1539.56 1539.56 1539.28 1538.08 1536.38 1537.24 1535.66 1534.25 1532.28 1532.16 1531.49 1531.16 1530.46 1530.19 1529.6 1529.4 1528.77 1528.49 1528.09 1527.8 1527.23 1525.91 1524.82 1524.93 1524.66 1524.49 1523.91 1523.58 1522.83 1522.38 1521.62 1521.25 1520.6 1520.18
1581.12 1581.16 1579.59 1579.26 1578.68 1577.68 1574.67 1573.82 1573.94 1573.95 1574.11 1573.85 1573.32 1570.89 1568.06 1567.24 1565.73 1564.51 1563.24 1563.01 1562.78 1563.04 1563 1562.68 1562.57 1562.41 1562.58 1561.97 1560.95 1559.55 1559.93 1560.05 1559.49 1558.73 1557.6 1556.9 1555.75 1554.93 1554.33 1554.12 1555.72 1555.32 1554.34 1554.4 1554.31 1554.05 1552.8 1551.18 1547.81 1546.11 1543.74 1542.78 1542.7 1542.72 1544.25 1544.61 1544.94 1545.1 1544.91 1544.55 1544.36 1544.25 1543.49 1542.9 1539.81 1539.78 1539.6 1538.72 1537.83 1537.38 1536.73 1534.77 1532.88 1532.44 1531.9 1531.53 1531.13 1530.58 1529.93 1529.67 1529.13 1528.73 1528.09 1527.91 1527.23 1526.12 1525.13 1525.33 1525.23 1524.71 1524 1523.55 1523.01 1522.5 1521.85 1521.52 1520.88 1520.42
1581.16 1581.53 1580.27 1580.23 1579.17 1577.46 1575.52 1575.2 1575.62 1574.86 1574.36 1574.16 1573.29 1570.58 1568.24 1567.81 1566.99 1565.69 1563.03 1562.64 1562.48 1562.64 1563.27 1563.13 1562.13 1561.19 1562.12 1562.71 1562.28 1561.65 1561.48 1561.22 1560.93 1560.49 1559.76 1559.23 1558.36 1557.66 1557.01 1557.3 1557.95 1557.86 1557.23 1556.54 1555.62 1554.77 1553.08 1551.87 1549.28 1548.31 1545.61 1545.29 1545.65 1545.44 1546.59 1546.4 1545.86 1545.44 1545.03 1544.85 1544.64 1544.45 1544.53 1542.3 1539.88 1539.93 1539.72 1539.48 1538.31 1538.17 1537.51 1535.7 1533.25 1532.69 1532.2 1531.74 1531.04 1530.6 1530.11 1529.51 1528.99 1528.73 1528.09 1527.61 1527.07 1525.9 1525.57 1525.5 1525.03 1524.53 1523.99 1523.44 1522.94 1522.47 1521.91 1521.44 1521.08 1520.68
1581.61 1581.47 1580.3 1580.06 1578.87 1577.49 1577.06 1576.85 1575.38 1575.02 1574.81 1574.7 1572.89 1571.56 1569.13 1568.1 1566.83 1565 1563.03 1562.71 1562.1 1562.61 1563.32 1563.61 1563.63 1564.53 1564.29 1565.12 1565.42 1565.11 1565.11 1564.96 1564.68 1564.25 1563.66 1563.04 1562.42 1561.7 1561.27 1561.22 1560.05 1559.52 1558.68 1557.74 1556.37 1555.57 1553.64 1552.19 1550.22 1549.25 1548.35 1547.82 1547.45 1547.77 1548.16 1547.88 1545.88 1545.67 1545.24 1545.47 1545.14 1544.97 1545.12 1543.49 1540.11 1539.95 1539.88 1539.69 1540.23 1540.41 1539.96 1538.41 1533.86 1532.6 1531.89 1531.5 1530.82 1530.59 1529.66 1529.37 1528.83 1528.45 1527.64 1527.43 1526.57 1525.99 1525.92 1525.81 1525.14 1524.84 1524.34 1524.01 1523.22 1522.74 1522.13 1521.81 1521.25 1520.94
1581.96 1581.27 1579.9 1578.83 1578.66 1578.71 1578.29 1577.13 1575.17 1575.14 1575.17 1575.02 1573.06 1571.96 1569.02 1567.9 1565.36 1564.25 1563.08 1562.62 1562.17 1562.83 1563.82 1564.47 1565.59 1566.38 1566.54 1566.72 1567.37 1568.2 1568.04 1567.61 1567.45 1567.07 1566.64 1565.92 1565.11 1563.83 1562.77 1562.38 1561 1560.44 1559.62 1558.72 1557.55 1556.37 1554.38 1553.05 1551.16 1550.12 1548.63 1548.89 1548.79 1548.63 1548.12 1547.38 1545.97 1546.07 1545.44 1545.63 1545.16 1544.69 1544 1542.58 1540.13 1540.06 1539.98 1539.81 1540.13 1540.41 1540.49 1539.27 1534.62 1533.52 1532 1531.51 1530.99 1530.66 1529.75 1529.41 1528.91 1528.3 1527.51 1527.01 1526.4 1526.27 1526.12 1525.7 1524.96 1524.54 1524.15 1523.85 1523.06 1522.73 1522.13 1521.97 1521.29 1520.97
1581.61 1580.58 1580.79 1580.41 1579.7 1579.39 1577.69 1576.52 1575.74 1575.86 1575.79 1575.63 1573.7 1571.46 1568.46 1566.75 1564.56 1564.25 1563.28 1563.07 1565.1 1566.09 1567.47 1568.03 1568.46 1569.43 1570.6 1570.72 1571.18 1571.58 1571.33 1571 1570.34 1569.35 1568.24 1567.35 1564.86 1564.09 1562.79 1562.6 1562.55 1562.2 1560.92 1559.87 1558.18 1556.58 1553.92 1552.38 1550.96 1550.72 1549.43 1549.59 1548.46 1548.14 1548.05 1548.07 1546.63 1546.15 1545.8 1545.89 1544.84 1543.46 1541.61 1540.01 1539.98 1540.13 1540.17 1540.05 1540.01 1540.1 1541.04 1540.33 1535.98 1533.21 1532.19 1531.66 1530.89 1530.68 1529.83 1529.48 1528.93 1528.19 1527.2 1526.93 1526.7 1526.55 1525.99 1525.45 1524.42 1524.11 1523.54 1523.27 1522.9 1522.51 1522.21 1521.77 1521.26 1520.93
1582.05 1581.25 1581.21 1580.9 1579.6 1578.61 1576.37 1576.29 1576.54 1576.31 1576.12 1576.02 1573.43 1571.16 1567.29 1565.59 1563.66 1563.81 1563.97 1565.34 1567.56 1568.65 1569.87 1570.45 1570.86 1571.18 1571.74 1571.77 1572.36 1572.33 1572.7 1572.78 1571.65 1570.85 1569.21 1568.08 1565.91 1565.3 1564.05 1563.62 1563.38 1563.09 1561.75 1560.25 1558.27 1556.31 1553.57 1551.86 1549.83 1548.84 1549.49 1550.05 1549.85 1549.46 1548.83 1548.51 1547.58 1546.99 1546.37 1545.51 1544.18 1542.17 1540.38 1539.53 1539.47 1540.14 1540.25 1540.2 1540.19 1540.67 1541.17 1539.73 1535.72 1532.96 1532 1531.5 1530.91 1530.3 1529.82 1529.39 1528.66 1527.6 1527.3 1527.15 1526.9 1526.34 1525.5 1525.13 1524.38 1523.97 1523.51 1523.3 1522.82 1522.37 1522.15 1521.79 1521.26 1521.14
1582.36 1581.88 1581.38 1580.73 1578.5 1577.57 1577.89 1577.71 1577.23 1576.87 1576.68 1576.5 1573.04 1570.66 1565.49 1564.61 1564.95 1565.86 1567.69 1569.19 1571.25 1572.5 1573.18 1572.27 1571.83 1571.85 1571.34 1570.86 1571.18 1571.13 1571.42 1570.89 1569.9 1569.17 1568.79 1567.54 1564.91 1564.87 1565.26 1565.19 1564.1 1563.57 1562 1561.28 1558.76 1556.17 1553.07 1551.09 1548.85 1548.88 1549.5 1550.24 1550 1549.64 1549.26 1548.94 1548.31 1547.53 1547.04 1545.85 1544.03 1543.42 1542.3 1541.81 1541.35 1540.97 1540.33 1540.33 1540.27 1541.48 1541.15 1539.83 1535.84 1534.21 1532.41 1531.57 1530.96 1530.28 1529.37 1528.6 1527.97 1527.72 1527.46 1527.17 1526.9 1526.26 1525.89 1525.47 1524.87 1524.46 1523.96 1523.84 1523.34 1522.91 1522.41 1522.09 1521.76 1521.32
1582.83 1581.57 1580.3 1579.54 1578.2 1578.82 1579.32 1578.53 1577.46 1577.2 1577.01 1576.56 1572.72 1569.8 1565.4 1565.75 1566.82 1568.65 1570.28 1571.58 1574.02 1573.71 1572.51 1571.92 1572.19 1570.82 1569.29 1568.77 1568.71 1568.92 1569.15 1569.24 1568.43 1568.13 1567.99 1565.67 1563.49 1564.57 1564.89 1564.86 1564.23 1563.66 1562.36 1560.72 1557.11 1555.43 1552.46 1551.26 1549.88 1550.05 1549.42 1549.82 1549.82 1549.57 1549.37 1549.5 1548.74 1548.13 1547.33 1546.01 1544.74 1544.28 1544.22 1543.47 1541.85 1541.01 1540.44 1540.36 1540.5 1541.65 1540.66 1540.25 1538.45 1536.02 1532.57 1531.69 1530.82 1530.21 1528.63 1528.27 1528.04 1527.84 1527.46 1527.49 1527.14 1526.79 1526.45 1526.11 1525.56 1524.91 1524.12 1524.02 1523.49 1523.11 1522.71 1522.26 1521.96 1521.49
1582.79 1580.94 1579.76 1579.49 1580.25 1581.12 1580.64 1579.91 1578.04 1577.76 1577.54 1576.72 1572.91 1569.16 1567.45 1568.94 1570.89 1572.5 1574.31 1574.55 1574.32 1573.95 1573 1571.73 1570.02 1569.26 1568.15 1568.01 1567.27 1566.35 1565.89 1565.33 1565.77 1564.84 1564.67 1563.13 1563.1 1563.23 1564.63 1565.15 1563.48 1562.46 1561.44 1559.75 1558.47 1556.9 1553.43 1551.32 1550.84 1550.77 1550.02 1549.74 1549.62 1549.37 1549.48 1549.41 1548.98 1548.92 1548.1 1547.12 1545.97 1545.57 1545.77 1544.31 1541.95 1541.24 1540.43 1540.51 1540.64 1541.73 1541.65 1541.19 1540.53 1537.92 1533.05 1531.25 1529.41 1528.93 1528.64 1528.45 1528.07 1528.38 1528.2 1528.19 1527.74 1527.53 1526.89 1526.36 1525.37 1524.93 1524.31 1524.18 1523.66 1523.34 1523.11 1522.54 1521.96 1521.54
1581.77 1580.6 1580.22 1580.61 1581.57 1581.6 1579.95 1578.62 1578.38 1578.13 1578.07 1576.84 1573.26 1570.66 1570.65 1571.72 1573.58 1574.87 1575.52 1575.26 1574.53 1573.8 1571.97 1570.12 1568.93 1568.62 1567.68 1567.12 1566.39 1565.62 1564.79 1564.35 1564.27 1563.84 1563.73 1562.15 1562.61 1562.48 1564.15 1564.6 1561.97 1560.75 1561.2 1560.94 1559.23 1557.21 1554.03 1551.7 1550.57 1550.19 1549.93 1549.77 1549.36 1549.55 1549.6 1549.57 1549.01 1549.02 1548.56 1548.11 1546.82 1546.4 1545.01 1543.9 1541.86 1541.32 1540.66 1540.58 1540.65 1541.92 1541.91 1541.55 1539.57 1537.33 1532.58 1530.62 1529.27 1529 1528.79 1528.67 1529.22 1528.73 1528.45 1528.09 1527.8 1527.5 1526.66 1526.16 1525.44 1524.97 1524.49 1524.24 1523.72 1523.31 1522.94 1522.41 1521.36 1521.06
1581.84 1581.86 1582.29 1582.61 1582.09 1580.77 1578.93 1576.87 1578.9 1578.77 1578.59 1577.26 1573.86 1573.96 1574.73 1575.87 1576.65 1576.57 1576.77 1576.52 1574.39 1572.15 1570.15 1568.84 1568.66 1568.23 1567.76 1567.31 1567 1567.09 1567.39 1566.68 1565.87 1565.15 1564.66 1563.85 1564.69 1564 1563.31 1563.98 1563.02 1562.44 1561.19 1560.07 1558.06 1556.24 1553.27 1551.88 1549.62 1548.6 1548.01 1548.01 1549.06 1549.32 1549.27 1549.32 1549.27 1549.05 1548.59 1547.55 1546.52 1545.98 1544.36 1543.71 1542.14 1541.61 1540.8 1540.85 1540.85 1542.28 1541.95 1541.06 1538.78 1537.86 1536.32 1535.8 1532.48 1530.62 1529.31 1529.46 1529.02 1528.74 1528.21 1528.01 1527.55 1527.18 1526.45 1525.74 1525.24 1524.93 1524.47 1524.17 1523.62 1523.07 1522.58 1521.74 1521.03 1520.58
1583.37 1583.38 1583.57 1582.95 1580.94 1579.52 1577.49 1575.93 1578.59 1579.15 1579.14 1577.88 1575.08 1575.99 1577.39 1577.86 1577.53 1577.61 1577.11 1576.03 1573.1 1571.06 1570.34 1569.47 1568.88 1568.84 1568.82 1568.83 1570.03 1569.77 1568.9 1568.12 1567.11 1566.11 1565.41 1565.25 1565.5 1564.51 1563.74 1563.48 1562.18 1561.47 1560.32 1559.5 1557.17 1555.39 1552.65 1550.75 1548.3 1547.51 1546.51 1546.42 1548.01 1548.58 1548.94 1549.22 1549.33 1549.04 1549.03 1547.82 1546.62 1545.86 1544.97 1543.73 1542.62 1541.99 1540.87 1540.79 1540.99 1542.31 1541.78 1540.75 1540.08 1539.33 1537.66 1536.8 1533.86 1531.43 1530.04 1529.32 1528.62 1528.37 1527.74 1527.4 1526.91 1526.48 1525.92 1525.39 1524.98 1524.61 1524.32 1523.84 1523 1522.42 1521.75 1521.27 1520.78 1520.18
1585.6 1584.84 1583.09 1582.29 1579.87 1578.59 1576.84 1576.99 1579.78 1579.77 1579.66 1578.54 1577.99 1578.82 1579.53 1579.52 1578.91 1577.87 1575.93 1573.66 1572.16 1570.92 1570.33 1570.34 1571.28 1571.36 1570.87 1571.53 1571.87 1570.6 1569.51 1569.3 1568.83 1568.74 1567.7 1567.2 1565.4 1564.85 1562.93 1561.74 1560.43 1560.22 1558.36 1556.93 1554.24 1552.99 1551.71 1550.44 1547.28 1544.78 1545.23 1546.18 1547.06 1547.42 1548.8 1548.8 1548.71 1548.89 1548.85 1548.28 1546.69 1545.59 1544.02 1543.54 1542.68 1541.83 1540.99 1540.87 1540.98 1541.28 1540.58 1540.61 1540.48 1540.53 1539.59 1538.46 1534.74 1532.32 1530.42 1529.68 1528.72 1527.93 1527.38 1527.18 1526.7 1526.36 1525.41 1524.87 1524.15 1523.8 1523.32 1522.96 1522.37 1521.85 1521.28 1520.9 1520.88 1520.69
1586.65 1584.88 1582.98 1581.17 1579.66 1578.62 1577.28 1577.35 1580.17 1580.09 1580.07 1579.32 1579.16 1579.08 1580.39 1580.91 1579.09 1577.54 1575.06 1573.52 1572.28 1571.07 1570.23 1570.86 1573.15 1572.66 1572.04 1572.53 1571.3 1570.61 1569.87 1569.2 1568.62 1568.08 1567.33 1566.56 1565.5 1564.9 1562.37 1560.96 1559.22 1558.23 1556.63 1556.14 1555.04 1554.33 1552.63 1551.64 1549.4 1545.9 1544.91 1546.11 1546.31 1546.62 1548.02 1548.42 1548.32 1548.65 1548.07 1547.96 1547.05 1545.83 1544.16 1543.46 1542.67 1541.39 1541.04 1541.01 1541.1 1541.44 1540.35 1540.26 1540.55 1541.4 1540.3 1539.08 1535.06 1531.98 1530.15 1530.45 1529.2 1528.06 1527.88 1526.95 1525.92 1525.6 1524.97 1524.39 1523.91 1523.6 1523.12 1522.93 1522.41 1521.88 1521.7 1521.55 1520.9 1520.84
1585.71 1584.22 1582.6 1581.3 1580.12 1580.17 1579.54 1579.39 1580.77 1580.63 1580.5 1580.08 1580.31 1580.59 1580.17 1579.89 1577.33 1575.57 1573.33 1572.37 1571.89 1572.13 1573.47 1574.87 1575.01 1574.34 1573.62 1571.59 1569.99 1568.28 1566.27 1565.18 1564.62 1564.11 1563.41 1562.65 1562.32 1561.41 1560.65 1559.52 1558.76 1558.51 1557.76 1557.08 1556.4 1555.69 1554.15 1553.14 1551.51 1548.85 1543.39 1545.06 1546.31 1546.29 1546.5 1547.18 1547.8 1547.58 1547.52 1546.4 1546.39 1546.32 1544.42 1543.56 1541.94 1541.16 1541.07 1540.91 1541.73 1542.06 1541.02 1540.99 1540.83 1541.07 1540.01 1538.48 1534.47 1531.19 1532.2 1533.34 1531.86 1531.42 1530.36 1527.69 1525.61 1525.07 1524.55 1524.24 1523.9 1523.79 1523.7 1523.38 1522.94 1522.38 1521.76 1521.43 1520.73 1520.67
1585.47 1583.48 1582.63 1581.79 1582.01 1581.91 1580.88 1580.91 1581.17 1581.01 1580.94 1580.92 1580.02 1579.96 1579.39 1578.21 1574.44 1572.82 1572.54 1571.78 1572.97 1574 1575.19 1575.1 1575.22 1574.55 1572.37 1570.33 1567.11 1565.37 1563.52 1561.9 1562.77 1561.32 1561.17 1561.53 1561.27 1560.81 1560.33 1560.13 1559.52 1559.21 1558.78 1558.11 1556.93 1556.34 1555.02 1553.93 1552.62 1550.82 1545.25 1544.82 1545.78 1545.96 1545.5 1546.67 1547.42 1547.29 1547.05 1546.4 1546.44 1546.44 1545.38 1543.07 1541.45 1541.34 1541.08 1541.01 1541.69 1542.14 1541.53 1541.39 1541.21 1540.7 1539.64 1538.22 1535 1533.52 1534.3 1534 1533.05 1532.67 1531.04 1528.64 1525.63 1525.02 1524.87 1524.59 1524.59 1524.69 1525.14 1524.98 1523.45 1522.55 1521.64 1521.13 1520.78 1520.67
1584.6 1584.27 1582.77 1583.51 1583.83 1584.76 1582.31 1581.64 1581.7 1581.57 1581.42 1581.3 1579.86 1578.65 1577.11 1575.08 1573.22 1572.84 1572.78 1573.78 1575.4 1576.2 1575.59 1575.59 1573.92 1572.42 1569.29 1566.64 1563.32 1561.74 1561.94 1562.51 1563.05 1563.21 1562.61 1562.54 1562.24 1561.99 1561.76 1561.29 1560.59 1559.98 1559.6 1559 1558.14 1557.3 1555.92 1554.8 1552.73 1551.66 1548.07 1543.2 1544.12 1544.7 1545.68 1545.86 1546.19 1546.68 1546.64 1546.34 1546 1545.54 1544.77 1542.51 1541.35 1541.43 1541.19 1541.1 1541 1541.19 1541.05 1541.18 1541.01 1540.78 1539.42 1537.28 1537.17 1536.24 1535.58 1534.76 1533.07 1532.15 1530.35 1528.96 1526.3 1526.29 1525.66 1525.86 1525.88 1525.89 1528.39 1528.98 1526.25 1525.18 1524.39 1523.44 1523.17 1520.54
1585.4 1585.94 1585.65 1585.96 1586.85 1586.76 1584.45 1582.87 1582.08 1581.95 1581.7 1581.36 1578.7 1577.57 1576.37 1575.02 1573.76 1573.68 1574.89 1576.18 1577.11 1576.65 1575.64 1575.42 1572.67 1570.44 1567.03 1564.92 1563.34 1563.25 1563.63 1563.84 1564.05 1564.21 1563.7 1563.5 1562.91 1562.36 1561.85 1561.3 1560.28 1560.02 1559.49 1558.95 1558.12 1557.09 1555.77 1555 1553.07 1551.66 1547.97 1544.65 1543.44 1545.02 1545.94 1545.49 1545.91 1546.17 1546.22 1545.97 1545.81 1545.47 1543.29 1541.68 1541.42 1541.46 1541.31 1541.05 1540.49 1540.82 1540.27 1540.26 1539.51 1539.39 1538.81 1538.2 1537.8 1536.95 1536.17 1535.16 1532.38 1531.57 1530.6 1529.85 1528.13 1527.84 1526.79 1527.4 1527.51 1528.44 1529.29 1529.17 1526.85 1526.75 1525.64 1524.63 1523.53 1521.32
1589.69 1589.59 1589.72 1590.04 1589.03 1588.23 1586.78 1583.59 1582.59 1582.48 1581.81 1579.87 1578.19 1577.06 1576.63 1576.8 1577.91 1578.11 1578.72 1578.87 1577.48 1576.7 1574.73 1572.52 1569.04 1568.29 1566.73 1566.08 1564.73 1564.83 1565.26 1565.37 1565.5 1565.38 1564.44 1564.1 1563.19 1562.24 1561.09 1560.48 1559.82 1559.19 1558.36 1558.07 1557.7 1556.64 1555.26 1554.74 1552.47 1551.35 1548.76 1546.4 1543.22 1544.09 1545.3 1545.47 1545.65 1545.55 1545.54 1545.23 1545.88 1544.68 1541.75 1541.65 1541.51 1541.47 1541.32 1541.6 1540.37 1540 1540.33 1539.45 1538.58 1537.74 1536.99 1538.03 1538.3 1536.8 1535.83 1533.93 1532.75 1530.85 1529.23 1530.18 1532.2 1531.53 1530.95 1531.42 1531.68 1531.1 1530.76 1529.83 1528.06 1527.94 1527.2 1525.2 1521.6 1520.1
1592.91 1592.41 1591.06 1590.32 1589.58 1590.17 1585.77 1583.34 1582.86 1582.82 1581.27 1579.67 1578.65 1577.94 1578.84 1579.53 1580.44 1580.69 1579.76 1578.74 1577.49 1576.21 1572.91 1570.19 1569.12 1568.56 1567.31 1566.8 1566.08 1566.21 1566.47 1566.37 1566.1 1565.84 1564.93 1564.01 1562.76 1561.71 1560.62 1559.95 1558.78 1558.24 1557.81 1557.45 1556.96 1556.36 1555.32 1554.6 1552.13 1550.95 1549.19 1547.04 1544.42 1544.34 1545.24 1545.4 1545.41 1545.39 1545.34 1545.51 1544.66 1543.77 1541.77 1541.66 1541.44 1541.45 1541.43 1541.65 1540.27 1539.59 1540.25 1539.23 1538.96 1538.2 1537.02 1537.69 1538.29 1536.65 1535.34 1534.17 1533.86 1532.03 1531.46 1531.69 1532.84 1532.85 1533.22 1533.02 1532.58 1531.89 1530.68 1529.94 1528.28 1528.59 1528.82 1526.39 1523.76 1521.26
1592.26 1591.83 1591.76 1591.54 1591.37 1589.93 1585.1 1583.67 1583.39 1583.27 1581.52 1580.9 1581.48 1581.79 1583 1584.17 1583.79 1581.93 1580.25 1578.59 1575.53 1573.47 1571.15 1570.8 1569.94 1569.22 1568.57 1568.64 1568.14 1568 1567.79 1567.25 1566.8 1566.14 1565.17 1564.32 1563.04 1562.3 1560.88 1560.41 1558.91 1558 1556.62 1555.97 1555.39 1554.85 1554.71 1553.32 1552.42 1550.37 1548.59 1547.05 1544.51 1543.85 1544.12 1544.47 1545.06 1545.4 1544.94 1544.99 1544.31 1542.37 1541.76 1541.59 1541.57 1541.41 1541.46 1541.03 1540.72 1540.8 1540.15 1540.01 1539.66 1538.53 1537.92 1537.95 1537.3 1536.77 1534.86 1534.9 1534.3 1534.09 1533.2 1533.44 1533.36 1533.71 1533.99 1534.77 1533.85 1531.75 1529.42 1530.17 1530.38 1530.02 1529.74 1529.09 1526.81 1523.5
1593.72 1592.69 1591.79 1591.82 1589.6 1587.7 1584.72 1583.83 1583.69 1583.4 1582.17 1582.73 1584.01 1584.87 1586.22 1586.41 1583.91 1581.92 1579.48 1577.37 1573.45 1572.49 1571.98 1571.48 1570.53 1569.9 1569.43 1569.33 1569.07 1568.96 1568.48 1568.07 1567.07 1566.47 1565.57 1564.79 1563.69 1562.67 1561.24 1560.58 1559.01 1558.04 1556.13 1555.38 1554.15 1554.09 1553.58 1552.89 1551.75 1550.87 1548.4 1546.18 1544.15 1544.32 1543.27 1543.36 1544.77 1545.27 1544.96 1544.77 1544.32 1542.65 1541.76 1541.72 1541.57 1541.48 1541.45 1541.21 1541.14 1540.97 1540.35 1540.58 1539.5 1538.27 1538.75 1538.4 1537.84 1537.14 1536.21 1535.62 1535.4 1534.7 1534.43 1534.04 1534.26 1534.13 1534.83 1534.93 1534.23 1532.75 1530.47 1530.38 1530.4 1530.5 1530.36 1529.6 1527.4 1525.37
1591.82 1591.22 1589.27 1587.74 1585.28 1584.56 1584.53 1584.3 1584.12 1584.04 1585.11 1586.75 1588.5 1588.73 1587.26 1585.51 1583.46 1580.91 1576.7 1575.2 1574.34 1573.98 1573.26 1572.64 1571.84 1571.27 1570.61 1570.42 1570.12 1569.62 1569.31 1568.8 1567.82 1567.23 1566.15 1565.24 1564.12 1563.1 1561.85 1560.66 1559.27 1558.38 1556.38 1555.24 1554.12 1552.92 1551.96 1551.63 1550.15 1548.72 1548.16 1547.22 1546.69 1545.99 1544.37 1543.06 1544.53 1544.94 1544.29 1543.86 1542.88 1542.22 1541.63 1541.69 1541.46 1541.35 1541.21 1541.16 1541.03 1540.42 1540.4 1539.99 1539.78 1540.17 1539.45 1539.06 1538.39 1537.94 1537.08 1536.75 1535.74 1535.84 1535.57 1535.28 1535.19 1534.77 1534.84 1534.31 1534.24 1532.99 1532.04 1531.87 1531.77 1531.85 1530.57 1527.92 1524.33 1523.09
1589.7 1589.43 1588.82 1588.05 1586.13 1584.97 1584.87 1584.71 1584.57 1585.49 1588.34 1589.5 1590.35 1589.39 1586.76 1585.22 1581.6 1578.59 1576.25 1575.65 1574.97 1574.67 1573.77 1573.15 1572.51 1572.19 1571.49 1570.9 1570.22 1569.69 1569.43 1568.89 1567.96 1567.66 1566.07 1565.17 1564.07 1563.15 1562.15 1561.11 1559.27 1558.44 1556.55 1555.77 1554.72 1553.55 1551.86 1550.74 1550.06 1549.07 1548.66 1548.06 1547.36 1546.61 1544.61 1542.98 1543.4 1544.12 1543.29 1542.76 1541.7 1542.01 1541.91 1541.65 1541.55 1541.24 1541.24 1541.25 1540.33 1540.06 1540.04 1539.97 1540.36 1540.34 1539.77 1538.88 1538.56 1538.07 1537.71 1537.29 1536.25 1536.17 1535.96 1535.65 1535.52 1535.63 1535.5 1535.26 1534.07 1532.92 1532.11 1532.23 1532.18 1532.47 1531.41 1529.07 1526.06 1524.68
1590.27 1588.88 1587.61 1586.81 1585.81 1585.6 1585.44 1585.18 1586.94 1589.47 1592.1 1591.61 1589.51 1587.11 1584.44 1582.16 1578.62 1577.41 1577.01 1576.46 1575.78 1575.31 1574.68 1574.03 1573.29 1572.54 1571.94 1571.49 1570.27 1569.7 1568.72 1568.44 1567.31 1566.52 1565.49 1564.65 1563.32 1562.59 1561.5 1560.5 1559.56 1558.25 1556.82 1556.16 1554.89 1554.01 1552.17 1551.01 1550.27 1549.45 1549.45 1548.88 1548.1 1547.23 1543.95 1542.15 1542.07 1542.61 1543.43 1540.61 1541.87 1541.99 1541.79 1541.61 1541.47 1540.7 1540.07 1539.89 1539.71 1539.64 1539.31 1539.35 1539.69 1539.72 1539.41 1539.23 1538.79 1538.09 1538.15 1537.96 1537.18 1536 1535.67 1535.78 1535.46 1535.33 1535.17 1534.47 1533.68 1532.53 1532.12 1531.69 1532.37 1531.88 1531.52 1530 1528.28 1526.7
1590.17 1588.82 1587.19 1586.39 1586.08 1585.99 1585.69 1586.25 1589.18 1591.62 1591.76 1590.44 1588.7 1586.15 1582.34 1579.77 1578.26 1577.72 1577.3 1576.57 1575.95 1575.69 1575.12 1574.32 1573.84 1573.01 1572.39 1571.68 1570.02 1569.29 1567.93 1567.43 1566.44 1565.97 1565.01 1564.31 1562.85 1562.12 1560.69 1560.03 1558.97 1558.03 1556.65 1555.83 1554.82 1553.98 1552.42 1551.31 1550.46 1549.89 1548.91 1548.28 1547.45 1546.67 1543.59 1542.35 1542.3 1542.64 1543.16 1541.6 1542.05 1541.79 1541.62 1541.59 1540.99 1539.79 1539.34 1539.48 1539.19 1539.57 1539.41 1539.18 1539.04 1539.33 1539.4 1538.87 1537.84 1537.26 1537.21 1537.44 1537.05 1536.62 1535.52 1535.29 1534.98 1534.39 1533.92 1533.57 1533.58 1532.94 1531.97 1532.04 1531.81 1531.57 1530.57 1530.42 1528.75 1526.91
1590 1588.36 1587.26 1586.99 1586.6 1586.41 1587.79 1591.3 1592.34 1592.37 1590.77 1588.87 1585.73 1583.4 1580.09 1578.24 1577.87 1577.1 1576.33 1576.06 1575.73 1575.56 1574.87 1574.74 1574.04 1573.46 1572.36 1571.49 1569.89 1569.03 1567.72 1566.67 1565.09 1564.18 1563.65 1563.38 1561.46 1560.92 1559.96 1559.51 1558.27 1557.4 1556.34 1555.67 1554.66 1554.1 1552.7 1551.64 1550.5 1550.18 1549.05 1548.44 1546.22 1544.95 1543.04 1541.62 1542.1 1542.42 1542.9 1543.18 1541.65 1541.79 1541.55 1541.36 1540.88 1539.42 1538.36 1539.02 1539.23 1539.65 1538.72 1538.63 1538.47 1539 1539.55 1538.4 1537.53 1537.16 1537.73 1538.07 1536.8 1535.93 1534.92 1533.71 1532.81 1532.13 1531.52 1531.51 1531.08 1531.32 1532.36 1531.45 1530.75 1530.41 1529.51 1529.44 1529.12 1528.32
1588.85 1587.88 1587.52 1587.25 1586.91 1586.86 1589.91 1591.26 1591.77 1592.06 1589.23 1586.9 1584.06 1581.73 1578.42 1577.63 1576.89 1576.58 1575.87 1575.43 1575.25 1574.88 1574.61 1574.7 1573.91 1573.11 1572.11 1571.31 1570.23 1569.37 1567.7 1566.77 1564.43 1563.24 1562.47 1562.12 1560.57 1559.83 1559.1 1558.74 1558.18 1557.25 1556.31 1555.56 1554.58 1553.43 1552.46 1551.72 1550.69 1550.41 1549.3 1548.85 1546.23 1544.54 1542.51 1541.5 1541.98 1542.18 1542.2 1542 1541.37 1541.73 1541.53 1541.33 1540.38 1539.97 1539.93 1539.45 1539 1538.45 1538.16 1538.45 1538.03 1538.35 1538.54 1538.76 1539.11 1538.36 1537.55 1537.74 1536.89 1536.43 1535.08 1534.12 1532.24 1531.3 1529.28 1530.65 1530.73 1530.68 1531.57 1531.41 1530.1 1530.21 1529.37 1529.32 1529.29 1529.11
1588.68 1588.4 1587.94 1587.61 1588.12 1590.32 1591.09 1590.52 1590.2 1589.24 1585.8 1583.71 1580.82 1579.66 1578.54 1577.79 1576.64 1576.18 1575.61 1574.9 1573.97 1573.98 1573.69 1573.83 1573.49 1573.03 1571.56 1570.62 1569.51 1568.13 1566.86 1566.26 1564.02 1562.84 1560.99 1560.26 1559.43 1558.88 1557.57 1557.47 1557.33 1556.82 1555.71 1554.85 1553.77 1553.29 1552.3 1551.74 1551.13 1550.01 1548.56 1547.59 1545.38 1543.87 1541.68 1540.48 1540.43 1540.72 1541.01 1540.5 1540.55 1541.6 1541.42 1541.65 1540.71 1539.18 1538.17 1538.57 1538.32 1538.68 1538.54 1538.08 1537.99 1538.16 1538.03 1538.07 1538.68 1538.79 1537.54 1536.95 1536.61 1536.47 1536.15 1535.66 1535.16 1534.38 1533.14 1532.44 1530.94 1530.93 1530.23 1529.29 1528.28 1528.2 1528.7 1529.66 1528.64 1528.25
1588.93 1588.62 1588.22 1589.31 1591.76 1591.7 1591.35 1590.58 1588.26 1586.36 1583.79 1581.92 1580.43 1579.87 1578.85 1578.01 1576.93 1576.32 1575.54 1574.77 1573.5 1573.03 1572.61 1572.71 1572.6 1572.13 1571.29 1570.17 1568.77 1567.91 1566.37 1565.56 1563.38 1562.21 1560.47 1559.54 1558.52 1557.71 1556.77 1556.43 1556.16 1556 1554.99 1554.43 1553.67 1552.89 1552.2 1551.66 1550.66 1550.15 1548.1 1546.62 1544.67 1543.5 1541.68 1540.2 1539.49 1539.96 1539.78 1539.27 1540.19 1541.34 1541.49 1541.33 1541.31 1540.57 1539.35 1538.4 1538.5 1539.02 1538.92 1537.36 1538.2 1538.66 1537.75 1537.96 1538.01 1537.7 1537.31 1536.94 1535.62 1535.37 1535.06 1535.22 1535.66 1535.39 1534.03 1533.52 1532.74 1531.79 1531.59 1530.84 1527.98 1527.62 1527.11 1528.25 1527.19 1527.37
1590.99 1592.18 1591.66 1591.79 1591.87 1590.52 1588.68 1587.25 1585.16 1584.1 1583.1 1582.75 1581.6 1580.65 1580 1578.95 1577.74 1577.15 1575.97 1575.03 1573.32 1572.36 1571.51 1571.28 1570.86 1570.73 1569.91 1569.06 1567.73 1566.67 1564.97 1564.09 1562.46 1561.34 1559.5 1558.83 1558.02 1557.41 1556.41 1556.05 1554.98 1554.65 1554.32 1553.89 1552.64 1551.89 1551.04 1550.29 1548.91 1547.94 1546.52 1545.62 1545.48 1545.35 1542.72 1541.35 1539.07 1538.77 1538.4 1538.1 1539.68 1541.2 1541.39 1541.2 1541.77 1541.34 1538.9 1538.23 1538.4 1537.87 1537.73 1537.91 1537.59 1537.54 1537.39 1537.57 1536.93 1536.76 1536.83 1536.52 1536.29 1535.74 1534.8 1535 1534.87 1534.99 1533.99 1533.31 1532.48 1532.52 1531.87 1531.11 1529.16 1527.96 1527 1527.04 1526.82 1526.41
1592.81 1592.63 1591.74 1591.08 1589.46 1587.99 1586.94 1586.27 1585.2 1584.51 1583.29 1582.83 1581.83 1581.13 1580.5 1579.44 1578.16 1577.44 1575.77 1575.15 1573.28 1572 1571.22 1570.71 1569.82 1569.43 1568.72 1567.54 1566.49 1565.62 1564.14 1563.37 1561.73 1560.55 1559.11 1558.56 1557.8 1557.34 1556.31 1555.69 1554.86 1554.6 1553.95 1552.77 1551.04 1550.29 1548.83 1548.24 1547.46 1547.2 1546.42 1546.28 1546.8 1546.89 1544.42 1542.39 1539.31 1538.72 1538.5 1538.57 1539.41 1541.26 1541.33 1541.22 1542.01 1541.71 1539.94 1537.97 1538.21 1537.5 1537.19 1537.25 1536.99 1537.25 1537.24 1536.96 1536.53 1536.49 1536.59 1536.43 1536.14 1535.44 1534.45 1535.26 1535.23 1535.09 1533.51 1532.68 1532.01 1532.29 1531.96 1531.39 1530.04 1529.46 1528.23 1527.5 1527.62 1527.57
1594.19 1591.76 1589.36 1587.8 1586.8 1586.73 1586.11 1585.89 1584.75 1584.13 1583.39 1582.7 1581.35 1580.64 1580.18 1579.21 1578.3 1577.31 1575.64 1575.06 1573.54 1572.3 1571.21 1570.47 1569.11 1568.51 1567.53 1566.4 1564.92 1564.62 1563.63 1563.07 1561.48 1560.48 1559.53 1558.48 1557.96 1557.19 1556.18 1555.65 1554.64 1554.02 1553.05 1551.99 1550.29 1550.15 1549.48 1549.61 1549.02 1548.82 1548.32 1548.89 1549.1 1548.99 1547.06 1544.96 1541.3 1538.97 1538.78 1538.77 1539.39 1540.52 1541.42 1541.11 1541.12 1540.88 1539.92 1539 1537.46 1536.54 1535.19 1536.68 1535.85 1536.5 1536.82 1536.82 1536.26 1536.3 1536.17 1536.15 1535.25 1535.4 1535.57 1535.47 1535.13 1534.7 1533.31 1532.61 1532.02 1532.33 1532.19 1531.36 1530.65 1530.17 1529.77 1529.19 1528.07 1527.87
1594.11 1591.86 1587.05 1586.47 1585.81 1585.94 1585.68 1585.22 1584.44 1583.72 1582.79 1582.21 1581.05 1580.3 1579.56 1578.61 1577.51 1576.87 1575.43 1574.63 1573.31 1572.25 1571.22 1570.45 1569.16 1568.77 1567.81 1567.27 1566.2 1565.32 1564.32 1563.38 1562.19 1561.2 1559.97 1559.13 1557.81 1557.1 1556.3 1555.79 1554.95 1554.45 1553.53 1552.75 1551.19 1550.98 1550.81 1550.69 1550.21 1550.08 1550.11 1550.35 1550.04 1549.68 1548.16 1545.98 1542.29 1539.41 1538.68 1538.69 1539.16 1540.22 1541.2 1541.16 1540.87 1540.74 1540.17 1539.43 1537.5 1535.89 1533.48 1534.14 1534.88 1535.88 1535.97 1537.17 1536.35 1535.86 1536 1536.11 1535.87 1535.77 1535 1535.2 1534.96 1534.82 1533.97 1533.16 1531.89 1531.93 1531.57 1531.07 1530.7 1530.11 1528.91 1528.26 1528.11 1527.71
1593.66 1591.58 1587.96 1587.81 1585.03 1584.83 1584.76 1584.64 1584.02 1583.39 1582.22 1581.07 1579.76 1579.08 1577.86 1577.33 1576.29 1575.43 1573.93 1573.58 1572.2 1571.64 1570.99 1570.81 1570.05 1569.33 1568.3 1567.61 1567.15 1565.93 1564.37 1563.43 1562.08 1562.08 1560.81 1559.83 1559.02 1558.41 1557.09 1556.24 1555.52 1555.19 1554.21 1553.82 1552.94 1552.66 1552.44 1552.57 1552.08 1552.2 1552.17 1552.02 1552.28 1551.44 1549.35 1547.43 1542.78 1540.39 1539.51 1539.08 1538.68 1539.75 1541.08 1541.14 1540.94 1540.81 1540.56 1540 1538.62 1537.05 1533.95 1533.06 1533.56 1534.04 1534.24 1534.61 1534.24 1534.4 1535.1 1535.45 1535.33 1534.86 1535.07 1534.82 1535.21 1535.55 1535.03 1534.4 1532.2 1531.87 1530.17 1531.16 1530.26 1529.72 1529.15 1528.34 1527.49 1526.79
1593.2 1591.84 1589.12 1587.31 1586.75 1585.37 1584.44 1584.3 1583.64 1583.43 1581.75 1580.81 1579.26 1578.08 1577.02 1576.3 1575 1574.2 1573.1 1572.64 1571.6 1571.13 1570.86 1570.69 1570.38 1569.98 1568.77 1567.92 1567.14 1565.73 1564.54 1563.97 1562.69 1562.34 1561.06 1559.97 1559.5 1559.18 1558.22 1556.91 1556.21 1555.87 1555.1 1554.65 1553.79 1553.76 1553.65 1553.77 1553.39 1553.32 1553.31 1552.74 1552.7 1552 1549.77 1548.56 1544.81 1541.96 1539.72 1539.36 1538.71 1539.53 1540.92 1541.18 1541.03 1540.9 1540.69 1540.43 1538.64 1537.18 1533.94 1533.93 1534.44 1534.69 1535.15 1534.85 1533.95 1533.41 1534.09 1534.54 1533.42 1533.35 1533.43 1533.48 1533.69 1533.69 1533.43 1533.02 1532.29 1531.67 1531.16 1531.21 1529.26 1528.61 1528.45 1528.15 1527.54 1525.93
1592.37 1591.53 1589.86 1588.79 1588.16 1587.33 1584.4 1583.13 1582.75 1582.91 1581.59 1580.86 1579.25 1578.24 1576.7 1576.14 1574.64 1573.51 1571.81 1571.01 1570.38 1570.09 1569.52 1569.23 1568.74 1568.44 1567.45 1566.26 1565.19 1564.64 1563.95 1563.46 1562.19 1561.82 1560.9 1560.43 1560.1 1559.55 1558.29 1557.88 1557.11 1556.64 1555.95 1555.59 1555.2 1555.15 1554.81 1554.83 1554.46 1554.22 1553.75 1553.25 1552.68 1551.85 1550.8 1549.75 1547.58 1544.36 1540.42 1540.02 1539.2 1539.81 1540.8 1541.15 1541.08 1540.77 1540.7 1540.02 1538.56 1537.33 1535.63 1536.18 1536.73 1536.89 1536.5 1535.96 1535 1534.27 1533.46 1533.1 1531.79 1531.04 1530.37 1530.04 1529.7 1529.73 1529.46 1529 1529.27 1529.15 1529.47 1529.05 1528.52 1528.36 1528.38 1528.11 1527.43 1526.51
1591.81 1591.33 1590.52 1589.66 1588.08 1587.26 1584.7 1582.91 1582.13 1582.04 1581.27 1580.61 1579.25 1578.57 1577.29 1576.35 1575.01 1573.9 1571.85 1570.48 1569.02 1568.44 1567.92 1568.05 1567.71 1566.92 1565.86 1564.69 1563.56 1563.04 1562.77 1562.34 1561.16 1560.72 1560.24 1560.1 1560.01 1559.54 1558.05 1557.18 1556.27 1556.32 1556.04 1555.62 1555.02 1555.03 1554.7 1554.61 1554.03 1554.13 1553.77 1552.99 1552.41 1552.1 1550.85 1550.15 1547.92 1546.05 1542.45 1541.17 1539.89 1539.95 1540.65 1541.12 1540.72 1540.13 1539.19 1538.04 1537.5 1537.14 1536.95 1537.55 1537.76 1537.73 1537.23 1536.58 1535.86 1535.04 1534.03 1533.41 1532.42 1531.71 1530.89 1530.28 1529.3 1529.14 1528.06 1527.18 1526.4 1526.87 1528.71 1528.02 1527.08 1527.6 1527.67 1527.71 1527.23 1526.85
1591.47 1591.53 1589.41 1588.11 1587.22 1586.41 1583.44 1582.44 1581.31 1581.16 1580.72 1580.02 1578.82 1577.93 1577.23 1576.56 1575.48 1574.02 1572.27 1571.03 1569.14 1567.48 1565.88 1565.61 1565.41 1565.01 1563.18 1561.59 1560.83 1560.92 1560.86 1560.75 1559.66 1559.12 1558.69 1558.29 1557.94 1557.55 1556.39 1555.64 1554.65 1553.75 1554.31 1554.31 1554.54 1554.22 1554.07 1553.83 1552.86 1552.18 1551.19 1551.39 1551.47 1550.94 1550.24 1549.41 1548.17 1546.56 1545.08 1543.03 1541.22 1540.28 1540.96 1541.4 1540.41 1538.69 1537 1537.2 1537.83 1538.12 1539.19 1539.35 1539.25 1539.06 1537.97 1537.4 1536.22 1535.64 1535 1534.09 1533.18 1532.19 1531.2 1530.62 1529.96 1529.31 1528.27 1527.62 1526.41 1525.78 1525.07 1524.75 1525.52 1525.71 1526.08 1526.89 1526.9 1526.43
1591.09 1590.64 1588.12 1585.6 1584.74 1584.02 1582.5 1582.14 1580.89 1580.36 1579.71 1578.98 1578.12 1577.55 1576.79 1576.21 1575.25 1574.3 1572.46 1570.94 1569.34 1567.75 1565.74 1564.38 1563.44 1563.05 1561.51 1560.01 1558.75 1559.1 1559.43 1559.31 1558.81 1558.48 1557.66 1557.31 1556.54 1555.81 1554.46 1553.92 1553.43 1552.4 1551.48 1551.29 1552.09 1552.14 1552.06 1552.66 1551.07 1550.51 1550.21 1550.06 1549.98 1549.7 1549.82 1549.21 1548.5 1547.74 1546.41 1545.09 1542.31 1540.85 1541.01 1541.31 1540.63 1539.2 1537.91 1538.32 1539.12 1539.41 1540 1539.92 1539.5 1538.99 1538.09 1537.25 1536.41 1535.83 1534.96 1534.33 1533.05 1532.34 1531.3 1530.9 1529.97 1529.5 1528.73 1528.21 1526.38 1525.05 1524.07 1524.02 1525.69 1526.23 1526.33 1526.17 1526.4 1526.38
1586.48 1586.44 1584.85 1583.22 1582.09 1581.49 1581.81 1581.64 1580.05 1579 1578 1577.37 1576.74 1576.32 1575.86 1575.34 1574.53 1573.7 1572.24 1570.88 1568.55 1566.94 1565.39 1564.05 1562.86 1562.16 1560.27 1559.16 1556.64 1556.47 1557.05 1557.32 1557.43 1557.11 1555.98 1554.55 1553.15 1552.79 1551.16 1550.71 1549.79 1548.62 1547.99 1547.99 1548.54 1548.9 1549.43 1549.77 1549.1 1548.15 1547.22 1546.79 1546.43 1546.41 1548.11 1548.2 1548.21 1547.34 1545.73 1544.34 1542.08 1540.65 1540.99 1541.22 1541.08 1540.12 1539.01 1539.13 1539.86 1540.02 1540.15 1539.69 1539 1538.34 1537.53 1536.92 1536.07 1535.6 1534.85 1534.2 1533.22 1532.12 1530.61 1529.84 1529.13 1528.96 1528.49 1528 1526.61 1525.61 1523.38 1522.63 1525.34 1525.61 1526.49 1526.36 1526.15 1526.43
