1621.42 1620.956 1620.505 1620.054 1619.568 1619.088 1618.702 1618.431 1618.156 1617.857 1617.544 1617.12 1616.64 1616.169 1615.711 1615.394 1615.357 1615.62 1615.897 1615.934 1616.028 1616.251 1616.414 1616.576 1616.602 1616.338 1615.95 1615.537 1615.095 1614.655 1614.302 1614.135 1614.075 1614.022 1613.851 1613.383 1612.71 1612.156 1611.859 
1620.763 1620.372 1619.975 1619.536 1619.077 1618.665 1618.368 1618.191 1618.05 1617.845 1617.523 1617.089 1616.601 1615.952 1615.224 1614.757 1614.612 1614.695 1614.893 1615.095 1615.407 1615.729 1615.96 1616.2 1616.36 1616.265 1615.977 1615.586 1615.138 1614.681 1614.301 1614.109 1614.019 1613.895 1613.637 1613.17 1612.552 1611.918 1611.445 
1620.073 1619.754 1619.43 1619.056 1618.648 1618.289 1618.056 1617.937 1617.885 1617.819 1617.573 1617.079 1616.459 1615.613 1614.712 1614.175 1613.997 1613.959 1614.037 1614.349 1614.841 1615.245 1615.521 1615.784 1616.001 1616.049 1615.889 1615.579 1615.179 1614.745 1614.36 1614.105 1613.934 1613.718 1613.359 1612.862 1612.298 1611.709 1611.167 
1619.494 1619.212 1618.931 1618.607 1618.249 1617.946 1617.766 1617.688 1617.645 1617.568 1617.331 1616.816 1616.141 1615.325 1614.441 1613.766 1613.428 1613.284 1613.251 1613.505 1614.068 1614.609 1614.971 1615.242 1615.451 1615.546 1615.556 1615.466 1615.202 1614.832 1614.442 1614.074 1613.776 1613.472 1613.044 1612.52 1611.973 1611.42 1610.899 
1618.997 1618.727 1618.459 1618.151 1617.838 1617.614 1617.479 1617.383 1617.255 1617.067 1616.78 1616.304 1615.677 1614.983 1614.257 1613.527 1612.949 1612.647 1612.555 1612.659 1612.98 1613.462 1613.968 1614.402 1614.744 1614.945 1615.075 1615.158 1615.06 1614.774 1614.395 1613.982 1613.595 1613.2 1612.722 1612.188 1611.65 1611.124 1610.657 
1618.515 1618.25 1617.987 1617.704 1617.448 1617.242 1617.03 1616.835 1616.634 1616.384 1616.057 1615.608 1615.038 1614.431 1613.869 1613.232 1612.602 1612.175 1611.93 1611.792 1611.812 1612.202 1612.783 1613.278 1613.679 1614.055 1614.417 1614.645 1614.677 1614.468 1614.117 1613.771 1613.41 1612.955 1612.422 1611.882 1611.354 1610.868 1610.472 
1618.038 1617.772 1617.518 1617.239 1616.921 1616.589 1616.273 1616.038 1615.85 1615.636 1615.325 1614.869 1614.323 1613.813 1613.39 1612.902 1612.416 1612.014 1611.652 1611.356 1611.268 1611.578 1612.057 1612.436 1612.766 1613.211 1613.658 1613.943 1614.102 1614.034 1613.773 1613.51 1613.209 1612.727 1612.144 1611.59 1611.087 1610.666 1610.326 
1617.505 1617.192 1616.875 1616.503 1616.138 1615.791 1615.483 1615.269 1615.109 1614.944 1614.692 1614.245 1613.69 1613.231 1612.93 1612.621 1612.323 1612.023 1611.683 1611.354 1611.124 1611.152 1611.351 1611.633 1611.983 1612.411 1612.816 1613.124 1613.355 1613.445 1613.407 1613.295 1613.03 1612.514 1611.884 1611.323 1610.872 1610.515 1610.186 
1616.992 1616.515 1616.043 1615.594 1615.263 1615.012 1614.772 1614.587 1614.441 1614.294 1614.089 1613.712 1613.243 1612.914 1612.69 1612.417 1612.147 1611.857 1611.516 1611.241 1610.976 1610.686 1610.533 1610.708 1611.098 1611.534 1611.955 1612.293 1612.549 1612.817 1613.072 1613.123 1612.86 1612.309 1611.64 1611.041 1610.586 1610.21 1609.836 
1616.5 1615.811 1615.225 1614.756 1614.411 1614.204 1614.068 1613.936 1613.792 1613.644 1613.479 1613.26 1613.033 1612.87 1612.666 1612.348 1611.993 1611.607 1611.217 1610.999 1610.834 1610.472 1610.107 1610.134 1610.412 1610.696 1611.091 1611.506 1611.859 1612.249 1612.572 1612.634 1612.444 1612.009 1611.334 1610.634 1610.136 1609.766 1609.406 
1616.159 1615.347 1614.643 1614.05 1613.608 1613.342 1613.25 1613.253 1613.175 1613.028 1612.898 1612.813 1612.802 1612.802 1612.668 1612.368 1611.991 1611.57 1611.159 1610.878 1610.701 1610.447 1610.137 1609.957 1609.828 1609.828 1610.195 1610.676 1611.141 1611.569 1611.86 1612.007 1612.01 1611.768 1611.117 1610.296 1609.757 1609.421 1609.096 
1615.944 1615.137 1614.382 1613.661 1613.087 1612.776 1612.687 1612.665 1612.586 1612.493 1612.423 1612.359 1612.345 1612.386 1612.381 1612.261 1611.979 1611.549 1611.118 1610.773 1610.547 1610.352 1610.096 1609.737 1609.278 1609.057 1609.32 1609.78 1610.314 1610.825 1611.219 1611.543 1611.717 1611.568 1610.906 1610.039 1609.481 1609.149 1608.832 
1615.775 1615.019 1614.268 1613.514 1612.86 1612.496 1612.39 1612.31 1612.206 1612.145 1612.087 1611.979 1611.845 1611.76 1611.791 1611.874 1611.741 1611.366 1610.967 1610.647 1610.432 1610.259 1610.015 1609.622 1609.178 1608.882 1608.816 1608.979 1609.482 1610.135 1610.694 1611.134 1611.34 1611.212 1610.644 1609.824 1609.247 1608.933 1608.667 
1615.663 1614.916 1614.155 1613.381 1612.689 1612.279 1612.15 1612.074 1611.997 1611.938 1611.827 1611.653 1611.422 1611.216 1611.247 1611.422 1611.383 1611.094 1610.769 1610.523 1610.354 1610.202 1609.951 1609.547 1609.165 1608.854 1608.541 1608.361 1608.617 1609.279 1610.04 1610.634 1610.869 1610.803 1610.399 1609.664 1609.095 1608.855 1608.685 
1615.647 1614.836 1614.003 1613.179 1612.481 1612.099 1611.967 1611.895 1611.858 1611.811 1611.674 1611.462 1611.162 1610.931 1611.01 1611.159 1611.053 1610.764 1610.481 1610.283 1610.148 1610.013 1609.764 1609.371 1608.998 1608.666 1608.293 1607.943 1607.973 1608.541 1609.279 1609.962 1610.363 1610.401 1610.073 1609.412 1608.858 1608.625 1608.45 
1615.734 1614.879 1613.989 1613.133 1612.45 1612.117 1612.068 1612.032 1611.966 1611.853 1611.66 1611.407 1611.063 1610.866 1610.945 1610.944 1610.709 1610.405 1610.148 1609.964 1609.799 1609.638 1609.454 1609.15 1608.789 1608.436 1608.048 1607.724 1607.784 1608.214 1608.75 1609.347 1609.83 1609.963 1609.671 1609.089 1608.56 1608.252 1608.018 
1615.865 1614.997 1614.126 1613.398 1612.902 1612.643 1612.577 1612.51 1612.339 1612.091 1611.768 1611.412 1611.028 1610.839 1610.81 1610.636 1610.334 1610.042 1609.833 1609.683 1609.503 1609.339 1609.224 1608.978 1608.591 1608.203 1607.807 1607.529 1607.619 1607.924 1608.309 1608.784 1609.156 1609.222 1609.013 1608.682 1608.274 1607.935 1607.747 
1615.987 1615.165 1614.433 1613.917 1613.658 1613.494 1613.328 1613.178 1612.914 1612.502 1612.016 1611.518 1611.07 1610.796 1610.573 1610.279 1609.964 1609.701 1609.559 1609.461 1609.297 1609.199 1609.171 1608.986 1608.597 1608.165 1607.793 1607.507 1607.401 1607.53 1607.796 1608.118 1608.3 1608.236 1608.134 1608.075 1607.899 1607.629 1607.488 
1616.173 1615.517 1614.937 1614.536 1614.388 1614.214 1613.962 1613.766 1613.452 1612.945 1612.355 1611.716 1611.101 1610.647 1610.268 1609.909 1609.607 1609.404 1609.334 1609.279 1609.17 1609.145 1609.169 1609.051 1608.731 1608.335 1607.97 1607.601 1607.202 1606.988 1607.094 1607.293 1607.328 1607.264 1607.261 1607.301 1607.298 1607.183 1607.076 
1616.148 1615.554 1615.106 1614.8 1614.568 1614.309 1614.11 1613.952 1613.625 1613.065 1612.359 1611.591 1610.889 1610.362 1609.932 1609.55 1609.275 1609.164 1609.146 1609.108 1609.081 1609.119 1609.153 1609.045 1608.745 1608.36 1607.979 1607.547 1606.999 1606.502 1606.305 1606.353 1606.379 1606.382 1606.426 1606.472 1606.515 1606.526 1606.517 
1615.973 1615.168 1614.649 1614.438 1614.219 1613.972 1613.82 1613.652 1613.313 1612.754 1611.993 1611.181 1610.515 1610.02 1609.603 1609.246 1609.026 1608.983 1608.996 1608.995 1609.031 1609.118 1609.184 1609.056 1608.694 1608.225 1607.729 1607.149 1606.585 1606.076 1605.671 1605.544 1605.575 1605.623 1605.693 1605.807 1605.969 1606.084 1606.04 
1615.858 1614.827 1614.024 1613.678 1613.527 1613.418 1613.311 1613.112 1612.758 1612.241 1611.51 1610.726 1610.134 1609.69 1609.288 1608.969 1608.825 1608.831 1608.894 1608.956 1609.037 1609.183 1609.299 1609.174 1608.755 1608.167 1607.505 1606.763 1606.119 1605.544 1605.045 1604.896 1605.028 1605.225 1605.439 1605.653 1605.798 1605.802 1605.597 
1615.784 1614.777 1613.807 1613.187 1612.864 1612.689 1612.579 1612.434 1612.119 1611.622 1610.979 1610.307 1609.789 1609.38 1608.994 1608.711 1608.596 1608.585 1608.663 1608.821 1609.045 1609.282 1609.43 1609.342 1608.898 1608.211 1607.411 1606.546 1605.813 1605.197 1604.736 1604.717 1604.986 1605.284 1605.523 1605.625 1605.589 1605.422 1605.123 
1615.639 1614.767 1613.841 1613.132 1612.636 1612.21 1611.877 1611.712 1611.492 1611.023 1610.452 1609.938 1609.489 1609.075 1608.705 1608.433 1608.275 1608.236 1608.309 1608.49 1608.808 1609.157 1609.371 1609.373 1608.998 1608.261 1607.349 1606.435 1605.765 1605.27 1604.901 1604.937 1605.206 1605.386 1605.435 1605.373 1605.227 1604.976 1604.683 
1615.403 1614.724 1613.964 1613.282 1612.67 1611.98 1611.366 1611.114 1610.942 1610.513 1610.019 1609.641 1609.276 1608.847 1608.411 1608.066 1607.896 1607.876 1607.944 1608.126 1608.458 1608.779 1608.89 1608.896 1608.71 1608.136 1607.253 1606.374 1605.827 1605.478 1605.201 1605.169 1605.239 1605.218 1605.128 1605.003 1604.812 1604.542 1604.301 
1614.935 1614.344 1613.755 1613.183 1612.514 1611.669 1610.947 1610.632 1610.43 1610.046 1609.663 1609.368 1609.027 1608.604 1608.148 1607.774 1607.593 1607.554 1607.633 1607.853 1608.146 1608.382 1608.387 1608.255 1608.074 1607.662 1607.003 1606.329 1605.876 1605.558 1605.281 1605.105 1604.993 1604.882 1604.763 1604.612 1604.388 1604.151 1603.96 
1614.473 1613.912 1613.427 1612.922 1612.236 1611.436 1610.789 1610.381 1610.036 1609.675 1609.379 1609.085 1608.688 1608.246 1607.844 1607.57 1607.465 1607.463 1607.591 1607.782 1607.903 1608.003 1607.955 1607.691 1607.36 1606.965 1606.524 1606.103 1605.745 1605.449 1605.165 1604.884 1604.664 1604.516 1604.379 1604.198 1603.99 1603.801 1603.64 
1614.051 1613.58 1613.148 1612.663 1612.051 1611.372 1610.744 1610.213 1609.785 1609.447 1609.151 1608.794 1608.355 1607.916 1607.581 1607.44 1607.431 1607.469 1607.635 1607.759 1607.703 1607.618 1607.437 1607.078 1606.689 1606.342 1606.05 1605.803 1605.549 1605.295 1605.018 1604.699 1604.404 1604.181 1604.003 1603.821 1603.64 1603.47 1603.369 
1613.629 1613.285 1612.869 1612.384 1611.84 1611.194 1610.543 1609.99 1609.553 1609.203 1608.883 1608.506 1608.075 1607.695 1607.454 1607.366 1607.341 1607.355 1607.523 1607.582 1607.412 1607.166 1606.823 1606.43 1606.107 1605.835 1605.636 1605.571 1605.508 1605.307 1605.014 1604.683 1604.349 1604.011 1603.691 1603.463 1603.295 1603.162 1603.195 
1613.258 1612.999 1612.615 1612.147 1611.608 1610.931 1610.234 1609.655 1609.191 1608.842 1608.551 1608.218 1607.854 1607.589 1607.436 1607.344 1607.265 1607.195 1607.218 1607.142 1606.917 1606.612 1606.218 1605.853 1605.591 1605.371 1605.25 1605.358 1605.507 1605.428 1605.12 1604.72 1604.328 1603.884 1603.388 1603.076 1602.895 1602.755 1602.867 
1612.897 1612.658 1612.331 1611.877 1611.302 1610.603 1609.853 1609.216 1608.761 1608.446 1608.176 1607.912 1607.695 1607.549 1607.437 1607.331 1607.188 1606.985 1606.82 1606.65 1606.411 1606.092 1605.69 1605.331 1605.09 1604.932 1604.931 1605.146 1605.387 1605.384 1605.045 1604.579 1604.162 1603.681 1603.069 1602.643 1602.398 1602.257 1602.416 
1612.527 1612.321 1612.05 1611.566 1610.891 1610.141 1609.404 1608.768 1608.357 1608.07 1607.775 1607.56 1607.488 1607.452 1607.389 1607.305 1607.11 1606.741 1606.404 1606.229 1606.069 1605.76 1605.287 1604.846 1604.59 1604.491 1604.589 1604.849 1605.086 1605.073 1604.725 1604.324 1604.026 1603.61 1602.961 1602.34 1601.918 1601.8 1602.039 
