1661.813 1661.469 1660.959 1660.365 1659.932 1659.778 1659.7 1659.587 1659.446 1659.256 1659.163 1659.277 1659.404 1659.457 1659.387 1659.144 1658.736 1658.202 1657.533 1656.866 1656.388 1656.17 1656.069 1655.832 1655.349 1654.741 1654.269 1654.015 1653.844 1653.736 1653.645 1653.43 1653.047 1652.651 1652.454 1652.341 1652.194 1652.044 1651.912 1651.862 1651.95 1652.027 1651.89 1651.724 1651.79 1651.977 1652.034 1651.75 1651.179 1650.587 1650.035 1649.542 1649.172 1648.815 1648.434 1648.137 1647.957 1647.807 1647.616 1647.409 1647.099 1646.543 1645.92 1645.426 1644.98 1644.492 1644.024 1643.715 1643.518 1643.314 1643.037 1642.702 1642.361 1641.955 1641.457 1641.007 1640.938 1641.452 1642.157 1642.656 1642.903 1642.902 1642.775 1642.725 1642.711 1642.572 1642.25 1641.735 1641.072 1640.379 1639.716 1638.98 1638.36 1638.029 1637.797 1637.517 1637.217 1636.915 1636.563 1636.207 1635.919 1635.626 1635.231 1634.788 1634.327 1633.899 1633.695 1633.944 1634.611 1635.378 1635.986 1636.304 1636.387 1636.305 1636.037 1635.484 1634.637 1633.868 1633.264 1632.697 1632.331 1632.175 1631.969 1631.598 1631.064 1630.557 1630.222 1629.969 1629.785 1629.714 1629.767 1630.021 1630.399 1630.704 1630.958 1631.295 1631.647 1631.995 1632.459 1632.845 1633.074 1633.163 1633.04 1632.804 1632.585 1632.319 1631.939 1631.511 1631.175 1630.949 1630.743 1630.472 1630.156 1629.823 1629.45 1629.018 1628.524 1627.877 1627.069 1626.348 1625.95 1625.836 1625.796 1625.681 1625.424 1625.038 1624.63 1624.37 1624.436 1624.778 1625.219 1625.618 1625.951 1626.266 1626.592 1626.856 1627.053 1627.154 1627.171 1627.231 1627.412 1627.669 1627.9 1628.057 1628.159 1628.181 1628.12 1628.017 1627.9 1627.765 1627.581 1627.339 1627.099 1626.891 1626.729 1626.648 1626.634 1626.469 1626.118 1625.729 1625.346 1625.02 1624.746 1624.469 1624.152 1623.799 1623.402 1622.947 1622.473 1622.08 1621.798 1621.607 1621.505 1621.391 1621.204 1620.981 1620.638 1620.174 1619.678 1619.176 1618.725 1618.372 1618.054 1617.771 1617.586 1617.451 1617.293 1617.178 1617.162 1617.14 1616.968 1616.637 1616.306 1616.073 1615.871 1615.623 1615.334 1615.056 1614.801
1662.431 1662.068 1661.652 1661.118 1660.564 1660.198 1660.031 1659.904 1659.715 1659.483 1659.348 1659.433 1659.559 1659.514 1659.286 1658.917 1658.447 1657.981 1657.459 1656.898 1656.474 1656.25 1656.016 1655.602 1655.074 1654.561 1654.213 1654.044 1653.939 1653.885 1653.797 1653.558 1653.221 1652.897 1652.662 1652.473 1652.28 1652.094 1651.97 1651.983 1652.125 1652.237 1652.141 1651.951 1651.928 1651.98 1651.808 1651.373 1650.813 1650.235 1649.648 1649.144 1648.863 1648.697 1648.501 1648.32 1648.198 1648.073 1647.854 1647.593 1647.259 1646.688 1646.055 1645.568 1645.136 1644.671 1644.214 1643.878 1643.661 1643.425 1643.067 1642.69 1642.405 1642.114 1641.753 1641.417 1641.356 1641.753 1642.351 1642.793 1642.941 1642.876 1642.791 1642.752 1642.685 1642.489 1642.08 1641.414 1640.63 1639.888 1639.168 1638.382 1637.765 1637.477 1637.343 1637.164 1636.88 1636.515 1636.026 1635.546 1635.24 1635.027 1634.714 1634.317 1633.922 1633.569 1633.471 1633.911 1634.693 1635.489 1636.088 1636.337 1636.325 1636.123 1635.774 1635.19 1634.175 1633.111 1632.295 1631.664 1631.348 1631.24 1631.063 1630.774 1630.404 1629.998 1629.551 1629.141 1628.87 1628.812 1628.984 1629.337 1629.741 1630.066 1630.341 1630.691 1631.057 1631.441 1632.002 1632.542 1632.891 1633.035 1632.954 1632.733 1632.457 1632.111 1631.676 1631.278 1631.027 1630.866 1630.671 1630.357 1629.983 1629.642 1629.385 1629.099 1628.715 1628.234 1627.552 1626.78 1626.217 1625.965 1625.844 1625.649 1625.316 1624.886 1624.358 1623.764 1623.412 1623.51 1623.861 1624.217 1624.551 1624.909 1625.282 1625.62 1625.868 1625.99 1626.022 1626.092 1626.294 1626.511 1626.731 1626.954 1627.112 1627.192 1627.191 1627.144 1627.056 1626.922 1626.724 1626.525 1626.391 1626.261 1626.164 1626.124 1626.18 1626.155 1625.926 1625.638 1625.375 1625.145 1624.898 1624.624 1624.326 1624.009 1623.713 1623.432 1623.125 1622.792 1622.444 1622.084 1621.774 1621.503 1621.214 1620.9 1620.497 1620.021 1619.527 1619.021 1618.641 1618.444 1618.275 1618.114 1617.979 1617.806 1617.62 1617.506 1617.464 1617.374 1617.109 1616.701 1616.317 1616.024 1615.754 1615.463 1615.211 1615.026 1614.84
1662.986 1662.586 1662.239 1661.812 1661.226 1660.686 1660.393 1660.209 1659.976 1659.719 1659.558 1659.612 1659.694 1659.558 1659.252 1658.843 1658.358 1657.964 1657.572 1657.113 1656.766 1656.511 1656.098 1655.5 1654.915 1654.468 1654.182 1654.023 1653.952 1653.941 1653.932 1653.804 1653.538 1653.253 1653.008 1652.782 1652.539 1652.276 1652.091 1652.109 1652.274 1652.406 1652.342 1652.12 1651.962 1651.845 1651.522 1651.043 1650.534 1649.983 1649.442 1649.038 1648.811 1648.686 1648.593 1648.514 1648.461 1648.376 1648.164 1647.836 1647.433 1646.883 1646.268 1645.755 1645.295 1644.818 1644.358 1644.007 1643.754 1643.439 1642.966 1642.517 1642.26 1642.056 1641.815 1641.645 1641.715 1642.088 1642.567 1642.865 1642.917 1642.888 1642.882 1642.823 1642.667 1642.364 1641.818 1641.033 1640.195 1639.398 1638.63 1637.976 1637.554 1637.374 1637.359 1637.288 1637.007 1636.582 1636.074 1635.567 1635.133 1634.752 1634.361 1633.914 1633.447 1633.194 1633.331 1633.932 1634.757 1635.546 1636.128 1636.351 1636.279 1635.974 1635.548 1634.923 1633.814 1632.527 1631.51 1630.838 1630.542 1630.485 1630.411 1630.275 1629.999 1629.512 1628.9 1628.362 1628.054 1628.067 1628.405 1628.85 1629.225 1629.525 1629.77 1630.012 1630.311 1630.817 1631.558 1632.205 1632.593 1632.763 1632.654 1632.332 1632.006 1631.697 1631.379 1631.14 1630.993 1630.878 1630.714 1630.407 1629.932 1629.447 1629.226 1629.083 1628.745 1628.269 1627.701 1627.057 1626.442 1626.051 1625.835 1625.564 1625.197 1624.749 1624.161 1623.453 1622.902 1622.783 1622.929 1623.16 1623.466 1623.84 1624.222 1624.577 1624.87 1625.046 1625.178 1625.319 1625.481 1625.599 1625.71 1625.814 1625.873 1625.916 1625.924 1625.922 1625.896 1625.816 1625.679 1625.604 1625.615 1625.562 1625.524 1625.549 1625.627 1625.651 1625.524 1625.3 1625.101 1624.965 1624.801 1624.56 1624.257 1623.949 1623.666 1623.444 1623.315 1623.105 1622.764 1622.324 1621.808 1621.305 1620.917 1620.561 1620.103 1619.595 1619.103 1618.583 1618.221 1618.1 1618.026 1617.92 1617.861 1617.771 1617.584 1617.441 1617.327 1617.124 1616.818 1616.414 1616.017 1615.742 1615.459 1615.162 1614.998 1614.929 1614.858
1663.303 1663.021 1662.769 1662.458 1661.881 1661.221 1660.763 1660.476 1660.221 1659.961 1659.767 1659.754 1659.784 1659.586 1659.228 1658.81 1658.366 1658.059 1657.768 1657.391 1657.091 1656.794 1656.301 1655.639 1655.008 1654.563 1654.274 1654.058 1653.938 1653.938 1654 1654.005 1653.875 1653.636 1653.357 1653.071 1652.772 1652.458 1652.219 1652.201 1652.356 1652.474 1652.383 1652.116 1651.861 1651.662 1651.332 1650.876 1650.397 1649.924 1649.543 1649.277 1649.058 1648.878 1648.787 1648.731 1648.692 1648.669 1648.527 1648.188 1647.73 1647.147 1646.495 1645.934 1645.432 1644.963 1644.571 1644.208 1643.885 1643.521 1643.003 1642.499 1642.173 1641.96 1641.812 1641.786 1641.972 1642.355 1642.712 1642.859 1642.861 1642.901 1642.945 1642.878 1642.708 1642.379 1641.762 1640.917 1640.082 1639.324 1638.622 1638.163 1637.922 1637.787 1637.77 1637.703 1637.406 1636.97 1636.481 1635.977 1635.502 1635.019 1634.49 1633.901 1633.334 1633.118 1633.414 1634.11 1634.935 1635.663 1636.148 1636.308 1636.235 1635.933 1635.398 1634.606 1633.399 1632.074 1631.127 1630.601 1630.356 1630.255 1630.176 1630.033 1629.644 1629.064 1628.478 1628.023 1627.795 1627.789 1628.034 1628.442 1628.817 1629.145 1629.405 1629.581 1629.837 1630.4 1631.165 1631.787 1632.131 1632.239 1632.039 1631.633 1631.265 1630.974 1630.826 1630.813 1630.838 1630.842 1630.747 1630.448 1629.851 1629.215 1628.937 1628.816 1628.52 1628.047 1627.539 1627.019 1626.466 1626.047 1625.767 1625.448 1625.069 1624.606 1623.983 1623.32 1622.879 1622.752 1622.724 1622.724 1622.796 1622.963 1623.203 1623.514 1623.915 1624.251 1624.519 1624.745 1624.924 1625 1624.96 1624.843 1624.656 1624.463 1624.365 1624.42 1624.511 1624.568 1624.604 1624.67 1624.779 1624.815 1624.827 1624.887 1624.926 1624.915 1624.877 1624.759 1624.608 1624.495 1624.345 1624.096 1623.796 1623.495 1623.237 1623.048 1622.907 1622.702 1622.425 1622.031 1621.48 1620.893 1620.453 1620.088 1619.604 1619.086 1618.627 1618.119 1617.754 1617.592 1617.421 1617.246 1617.252 1617.349 1617.291 1617.12 1616.881 1616.565 1616.246 1615.94 1615.635 1615.373 1615.083 1614.851 1614.85 1614.921 1614.929
1663.274 1663.234 1663.118 1662.854 1662.332 1661.636 1661.016 1660.614 1660.338 1660.099 1659.94 1659.9 1659.85 1659.594 1659.202 1658.776 1658.372 1658.137 1657.957 1657.709 1657.49 1657.183 1656.617 1655.912 1655.251 1654.748 1654.421 1654.166 1653.956 1653.862 1653.907 1653.984 1653.98 1653.839 1653.559 1653.23 1652.902 1652.577 1652.32 1652.263 1652.385 1652.472 1652.331 1652.025 1651.733 1651.492 1651.17 1650.745 1650.314 1649.982 1649.782 1649.605 1649.379 1649.152 1649.034 1648.962 1648.889 1648.888 1648.847 1648.569 1648.09 1647.466 1646.733 1646.061 1645.544 1645.197 1644.914 1644.528 1644.112 1643.701 1643.204 1642.71 1642.302 1641.997 1641.873 1641.94 1642.156 1642.477 1642.732 1642.805 1642.8 1642.894 1642.98 1642.926 1642.776 1642.495 1641.922 1641.1 1640.292 1639.61 1639.041 1638.703 1638.518 1638.358 1638.227 1638.015 1637.646 1637.198 1636.706 1636.206 1635.767 1635.338 1634.846 1634.319 1633.769 1633.448 1633.715 1634.42 1635.154 1635.751 1636.131 1636.229 1636.097 1635.709 1635.055 1634.136 1632.931 1631.798 1631.094 1630.754 1630.555 1630.377 1630.17 1629.842 1629.345 1628.802 1628.349 1628.059 1627.923 1627.859 1627.904 1628.193 1628.676 1629.057 1629.255 1629.408 1629.7 1630.29 1630.916 1631.213 1631.303 1631.342 1631.155 1630.751 1630.318 1630.023 1629.956 1630.036 1630.165 1630.258 1630.262 1630.117 1629.619 1628.968 1628.609 1628.428 1628.16 1627.749 1627.265 1626.714 1626.112 1625.747 1625.59 1625.323 1624.938 1624.491 1623.988 1623.522 1623.226 1623.114 1623.015 1622.877 1622.707 1622.516 1622.398 1622.521 1622.996 1623.511 1623.902 1624.224 1624.438 1624.41 1624.189 1623.852 1623.374 1622.932 1622.738 1622.894 1623.176 1623.365 1623.522 1623.772 1624.019 1624.161 1624.164 1624.12 1624.087 1624.062 1624.088 1624.091 1624.008 1623.877 1623.681 1623.395 1623.114 1622.853 1622.631 1622.407 1622.132 1621.871 1621.672 1621.396 1620.932 1620.392 1619.891 1619.407 1618.911 1618.431 1617.996 1617.544 1617.177 1616.919 1616.651 1616.452 1616.509 1616.672 1616.61 1616.369 1616.092 1615.783 1615.465 1615.232 1615.076 1614.88 1614.656 1614.555 1614.707 1614.928 1615.029
1663.048 1663.158 1663.161 1662.925 1662.497 1661.904 1661.24 1660.696 1660.368 1660.187 1660.107 1660.053 1659.899 1659.6 1659.23 1658.852 1658.51 1658.307 1658.193 1658.075 1657.932 1657.611 1656.981 1656.238 1655.542 1654.961 1654.582 1654.308 1654.035 1653.803 1653.732 1653.781 1653.803 1653.751 1653.592 1653.328 1653.015 1652.676 1652.375 1652.276 1652.385 1652.452 1652.265 1651.937 1651.625 1651.334 1651.005 1650.652 1650.331 1650.102 1649.987 1649.888 1649.688 1649.434 1649.284 1649.195 1649.099 1649.06 1649.034 1648.785 1648.29 1647.685 1647.003 1646.388 1645.97 1645.698 1645.4 1644.987 1644.539 1644.098 1643.624 1643.154 1642.716 1642.332 1642.119 1642.147 1642.324 1642.539 1642.708 1642.761 1642.777 1642.875 1642.979 1642.965 1642.824 1642.552 1642.04 1641.341 1640.63 1639.99 1639.459 1639.111 1638.862 1638.612 1638.339 1637.987 1637.56 1637.12 1636.678 1636.229 1635.806 1635.434 1635.092 1634.753 1634.34 1634.058 1634.249 1634.782 1635.376 1635.874 1636.126 1636.13 1635.915 1635.464 1634.751 1633.734 1632.564 1631.65 1631.138 1630.881 1630.702 1630.484 1630.146 1629.686 1629.179 1628.723 1628.388 1628.206 1628.111 1628.049 1628.108 1628.403 1628.796 1629.025 1629.124 1629.282 1629.657 1630.221 1630.579 1630.536 1630.373 1630.288 1630.143 1629.813 1629.46 1629.214 1629.044 1628.964 1628.982 1629.051 1629.146 1629.223 1629.059 1628.619 1628.241 1628.003 1627.757 1627.436 1627.031 1626.525 1625.972 1625.629 1625.485 1625.299 1625.017 1624.651 1624.276 1623.966 1623.727 1623.583 1623.447 1623.229 1622.897 1622.495 1622.183 1622.128 1622.426 1622.868 1623.281 1623.623 1623.783 1623.61 1623.258 1622.816 1622.191 1621.548 1621.202 1621.484 1622.063 1622.472 1622.78 1623.141 1623.468 1623.675 1623.715 1623.622 1623.499 1623.403 1623.384 1623.389 1623.307 1623.12 1622.869 1622.597 1622.362 1622.131 1621.87 1621.556 1621.217 1620.958 1620.825 1620.672 1620.356 1619.923 1619.443 1618.956 1618.486 1617.966 1617.367 1616.776 1616.368 1616.095 1615.825 1615.638 1615.66 1615.683 1615.48 1615.163 1614.879 1614.654 1614.428 1614.324 1614.353 1614.301 1614.215 1614.261 1614.499 1614.786 1614.965
1662.848 1662.87 1662.874 1662.746 1662.422 1661.928 1661.352 1660.807 1660.442 1660.297 1660.249 1660.156 1659.919 1659.547 1659.222 1658.994 1658.78 1658.574 1658.38 1658.25 1658.152 1657.905 1657.349 1656.613 1655.872 1655.228 1654.781 1654.468 1654.161 1653.839 1653.605 1653.526 1653.508 1653.486 1653.431 1653.302 1653.065 1652.706 1652.379 1652.284 1652.372 1652.402 1652.193 1651.864 1651.531 1651.201 1650.925 1650.678 1650.427 1650.215 1650.1 1650.035 1649.897 1649.69 1649.535 1649.431 1649.321 1649.197 1649.033 1648.739 1648.314 1647.838 1647.365 1646.926 1646.556 1646.287 1646.024 1645.668 1645.245 1644.796 1644.32 1643.824 1643.344 1642.927 1642.652 1642.588 1642.66 1642.763 1642.859 1642.884 1642.88 1642.926 1642.98 1642.936 1642.741 1642.428 1641.92 1641.273 1640.662 1640.066 1639.495 1639.083 1638.77 1638.458 1638.117 1637.729 1637.301 1636.876 1636.459 1636.029 1635.656 1635.375 1635.141 1634.934 1634.744 1634.713 1634.954 1635.336 1635.729 1636.021 1636.121 1636.067 1635.822 1635.341 1634.591 1633.516 1632.374 1631.617 1631.209 1630.946 1630.744 1630.47 1630.047 1629.563 1629.112 1628.744 1628.51 1628.389 1628.307 1628.301 1628.458 1628.672 1628.823 1628.905 1628.973 1629.165 1629.601 1630.029 1630.063 1629.838 1629.595 1629.39 1629.219 1629.058 1628.922 1628.699 1628.354 1628.063 1627.912 1627.852 1627.9 1628.033 1628.103 1627.96 1627.713 1627.534 1627.344 1627.026 1626.623 1626.207 1625.86 1625.687 1625.574 1625.425 1625.225 1624.937 1624.612 1624.313 1624.063 1623.944 1623.868 1623.618 1623.194 1622.784 1622.503 1622.336 1622.28 1622.347 1622.556 1622.842 1622.972 1622.747 1622.351 1621.916 1621.341 1620.669 1620.222 1620.466 1621.179 1621.806 1622.266 1622.668 1623.022 1623.25 1623.336 1623.325 1623.247 1623.117 1622.98 1622.87 1622.69 1622.376 1622.061 1621.796 1621.563 1621.339 1621.046 1620.651 1620.282 1620.075 1620.033 1620.007 1619.87 1619.593 1619.231 1618.861 1618.451 1617.925 1617.253 1616.5 1615.873 1615.369 1614.979 1614.761 1614.62 1614.438 1614.162 1613.83 1613.497 1613.283 1613.256 1613.381 1613.574 1613.698 1613.768 1613.923 1614.209 1614.553 1614.81
1662.353 1662.273 1662.245 1662.255 1662.13 1661.724 1661.169 1660.673 1660.402 1660.339 1660.289 1660.171 1659.959 1659.616 1659.294 1659.081 1658.889 1658.618 1658.302 1658.095 1658.026 1657.971 1657.675 1657.033 1656.265 1655.556 1655.026 1654.721 1654.483 1654.165 1653.802 1653.493 1653.26 1653.149 1653.093 1653.012 1652.867 1652.626 1652.441 1652.416 1652.448 1652.398 1652.181 1651.811 1651.371 1651.019 1650.835 1650.679 1650.464 1650.26 1650.167 1650.163 1650.105 1649.949 1649.788 1649.657 1649.505 1649.298 1648.994 1648.626 1648.261 1647.923 1647.615 1647.315 1647.033 1646.807 1646.589 1646.344 1646.034 1645.599 1645.09 1644.562 1644.04 1643.568 1643.227 1643.116 1643.21 1643.32 1643.32 1643.233 1643.133 1643.005 1642.811 1642.565 1642.326 1642.024 1641.503 1640.876 1640.376 1639.893 1639.318 1638.839 1638.487 1638.158 1637.804 1637.421 1637.011 1636.586 1636.139 1635.714 1635.431 1635.255 1635.078 1634.932 1634.924 1635.133 1635.461 1635.76 1635.976 1636.077 1636.076 1635.98 1635.69 1635.169 1634.422 1633.411 1632.371 1631.706 1631.313 1631.008 1630.758 1630.416 1629.96 1629.51 1629.126 1628.837 1628.672 1628.581 1628.536 1628.595 1628.694 1628.723 1628.72 1628.75 1628.824 1629.062 1629.474 1629.633 1629.423 1629.144 1628.894 1628.68 1628.578 1628.589 1628.555 1628.297 1627.901 1627.553 1627.327 1627.147 1627.009 1626.978 1627.065 1627.117 1627.05 1626.965 1626.79 1626.42 1625.976 1625.611 1625.455 1625.523 1625.566 1625.454 1625.291 1625.083 1624.768 1624.411 1624.145 1624.09 1624.141 1624.018 1623.64 1623.275 1623.014 1622.732 1622.464 1622.264 1622.163 1622.209 1622.223 1621.996 1621.631 1621.24 1620.763 1620.205 1619.778 1619.854 1620.485 1621.196 1621.718 1622.145 1622.498 1622.717 1622.848 1622.942 1622.954 1622.87 1622.715 1622.529 1622.256 1621.89 1621.528 1621.167 1620.875 1620.633 1620.284 1619.789 1619.349 1619.187 1619.262 1619.388 1619.44 1619.334 1619.128 1618.876 1618.529 1618.042 1617.4 1616.642 1615.908 1615.241 1614.691 1614.271 1613.869 1613.449 1612.996 1612.542 1612.125 1611.867 1611.962 1612.285 1612.62 1612.945 1613.256 1613.528 1613.843 1614.211 1614.502
1661.644 1661.509 1661.448 1661.509 1661.52 1661.216 1660.725 1660.349 1660.233 1660.247 1660.215 1660.127 1659.974 1659.703 1659.374 1659.079 1658.796 1658.377 1657.884 1657.623 1657.643 1657.753 1657.631 1657.059 1656.295 1655.633 1655.2 1654.992 1654.842 1654.585 1654.2 1653.752 1653.346 1653.139 1653.043 1652.946 1652.838 1652.69 1652.572 1652.539 1652.498 1652.386 1652.171 1651.786 1651.355 1651.076 1650.923 1650.742 1650.491 1650.287 1650.266 1650.376 1650.404 1650.25 1650.053 1649.89 1649.674 1649.358 1648.949 1648.5 1648.089 1647.779 1647.544 1647.353 1647.187 1647.01 1646.826 1646.629 1646.315 1645.861 1645.368 1644.875 1644.384 1643.96 1643.728 1643.731 1643.912 1644.053 1643.935 1643.676 1643.429 1643.091 1642.6 1642.034 1641.558 1641.224 1640.868 1640.452 1640.082 1639.673 1639.127 1638.598 1638.201 1637.853 1637.483 1637.097 1636.699 1636.268 1635.8 1635.378 1635.095 1634.923 1634.784 1634.748 1634.985 1635.361 1635.676 1635.909 1636.033 1636.048 1635.988 1635.812 1635.47 1634.954 1634.224 1633.332 1632.464 1631.832 1631.411 1631.079 1630.779 1630.381 1629.902 1629.494 1629.18 1628.971 1628.856 1628.782 1628.76 1628.781 1628.769 1628.702 1628.621 1628.601 1628.689 1628.933 1629.155 1629.033 1628.724 1628.458 1628.249 1628.156 1628.192 1628.272 1628.241 1627.989 1627.598 1627.232 1626.98 1626.758 1626.515 1626.314 1626.257 1626.336 1626.375 1626.322 1626.112 1625.707 1625.245 1624.925 1624.918 1625.119 1625.25 1625.159 1624.967 1624.83 1624.668 1624.384 1624.151 1624.111 1624.18 1624.241 1624.08 1623.775 1623.441 1623.081 1622.772 1622.47 1622.182 1622.034 1621.928 1621.664 1621.302 1620.935 1620.54 1620.131 1619.796 1619.739 1620.131 1620.678 1621.149 1621.558 1621.86 1622.084 1622.315 1622.519 1622.606 1622.547 1622.395 1622.208 1621.94 1621.571 1621.095 1620.577 1620.224 1619.976 1619.601 1619.107 1618.624 1618.413 1618.573 1618.845 1619.041 1619.075 1618.976 1618.791 1618.505 1618.057 1617.462 1616.783 1616.082 1615.388 1614.764 1614.182 1613.579 1612.932 1612.229 1611.582 1611.021 1610.621 1610.644 1611.013 1611.407 1611.793 1612.245 1612.702 1613.126 1613.537 1613.888
1660.966 1660.788 1660.669 1660.687 1660.705 1660.488 1660.197 1660.026 1660.015 1660.094 1660.135 1660.065 1659.859 1659.558 1659.223 1658.896 1658.556 1658.103 1657.62 1657.355 1657.343 1657.431 1657.265 1656.698 1656.054 1655.574 1655.308 1655.171 1655.048 1654.834 1654.472 1654.054 1653.712 1653.522 1653.392 1653.26 1653.14 1652.979 1652.755 1652.577 1652.454 1652.322 1652.15 1651.885 1651.581 1651.351 1651.165 1650.931 1650.65 1650.439 1650.424 1650.56 1650.636 1650.511 1650.295 1650.031 1649.604 1649.067 1648.538 1648.017 1647.549 1647.234 1647.033 1646.923 1646.898 1646.894 1646.823 1646.6 1646.179 1645.662 1645.179 1644.72 1644.31 1644.114 1644.198 1644.401 1644.559 1644.544 1644.304 1643.961 1643.552 1643.006 1642.368 1641.717 1641.146 1640.739 1640.402 1640.095 1639.825 1639.45 1638.906 1638.349 1637.909 1637.515 1637.092 1636.639 1636.18 1635.757 1635.392 1635.044 1634.734 1634.523 1634.467 1634.663 1635.118 1635.531 1635.768 1635.925 1635.997 1635.981 1635.878 1635.636 1635.26 1634.703 1633.903 1633.108 1632.501 1631.975 1631.499 1631.134 1630.819 1630.424 1629.974 1629.61 1629.311 1629.095 1628.978 1628.904 1628.866 1628.831 1628.776 1628.707 1628.598 1628.49 1628.546 1628.713 1628.647 1628.333 1628.036 1627.84 1627.754 1627.793 1627.866 1627.894 1627.85 1627.674 1627.327 1626.941 1626.665 1626.425 1626.157 1625.885 1625.688 1625.655 1625.66 1625.578 1625.377 1624.995 1624.539 1624.271 1624.308 1624.473 1624.551 1624.431 1624.225 1624.174 1624.227 1624.189 1624.081 1624.044 1624.169 1624.386 1624.417 1624.157 1623.763 1623.382 1623.031 1622.632 1622.286 1622.093 1621.935 1621.639 1621.234 1620.852 1620.52 1620.239 1619.998 1619.853 1619.926 1620.191 1620.563 1620.916 1621.187 1621.475 1621.796 1622.066 1622.227 1622.204 1622.056 1621.864 1621.616 1621.281 1620.729 1620.094 1619.692 1619.469 1619.131 1618.646 1618.113 1617.789 1617.953 1618.3 1618.572 1618.719 1618.698 1618.564 1618.346 1617.955 1617.422 1616.822 1616.164 1615.473 1614.83 1614.205 1613.523 1612.739 1611.847 1611.023 1610.322 1609.756 1609.596 1609.838 1610.193 1610.563 1611.026 1611.586 1612.131 1612.589 1612.922
1660.317 1660.133 1659.984 1659.956 1660.002 1659.985 1659.926 1659.828 1659.773 1659.838 1659.903 1659.828 1659.598 1659.28 1658.944 1658.614 1658.277 1657.932 1657.63 1657.419 1657.296 1657.2 1656.917 1656.411 1655.921 1655.602 1655.427 1655.302 1655.182 1654.995 1654.675 1654.353 1654.155 1654.016 1653.865 1653.713 1653.574 1653.368 1652.995 1652.608 1652.369 1652.228 1652.125 1652.015 1651.847 1651.642 1651.427 1651.178 1650.924 1650.755 1650.702 1650.739 1650.743 1650.582 1650.326 1649.951 1649.31 1648.54 1647.843 1647.214 1646.75 1646.476 1646.281 1646.221 1646.371 1646.579 1646.601 1646.363 1645.927 1645.384 1644.875 1644.466 1644.262 1644.346 1644.577 1644.787 1644.859 1644.705 1644.406 1644.059 1643.586 1642.955 1642.298 1641.722 1641.231 1640.797 1640.379 1640.014 1639.698 1639.297 1638.72 1638.071 1637.532 1637.084 1636.636 1636.156 1635.666 1635.259 1635.036 1634.914 1634.785 1634.685 1634.716 1634.97 1635.367 1635.665 1635.817 1635.888 1635.916 1635.896 1635.758 1635.391 1634.726 1633.929 1633.188 1632.597 1632.204 1631.847 1631.449 1631.128 1630.847 1630.524 1630.171 1629.824 1629.478 1629.172 1628.951 1628.856 1628.838 1628.813 1628.771 1628.719 1628.629 1628.478 1628.37 1628.274 1627.992 1627.641 1627.431 1627.366 1627.394 1627.444 1627.455 1627.419 1627.359 1627.241 1626.99 1626.647 1626.343 1626.069 1625.784 1625.496 1625.229 1625.049 1624.949 1624.855 1624.693 1624.333 1623.872 1623.529 1623.39 1623.405 1623.455 1623.433 1623.365 1623.406 1623.532 1623.621 1623.668 1623.799 1624.108 1624.434 1624.585 1624.412 1624.048 1623.652 1623.184 1622.7 1622.374 1622.171 1621.983 1621.7 1621.292 1620.85 1620.46 1620.188 1619.978 1619.796 1619.709 1619.781 1619.998 1620.265 1620.539 1620.866 1621.249 1621.563 1621.775 1621.84 1621.739 1621.525 1621.257 1620.948 1620.437 1619.797 1619.319 1619.047 1618.755 1618.319 1617.82 1617.391 1617.328 1617.625 1617.99 1618.24 1618.289 1618.214 1618.066 1617.742 1617.261 1616.709 1616.097 1615.429 1614.785 1614.169 1613.49 1612.668 1611.72 1610.809 1610.033 1609.387 1609.06 1609.172 1609.48 1609.785 1610.103 1610.497 1611.026 1611.545 1611.883
1659.801 1659.625 1659.499 1659.489 1659.625 1659.819 1659.883 1659.687 1659.42 1659.33 1659.35 1659.312 1659.177 1658.959 1658.662 1658.325 1657.993 1657.709 1657.475 1657.294 1657.154 1657.009 1656.733 1656.31 1655.926 1655.698 1655.56 1655.435 1655.309 1655.147 1654.889 1654.605 1654.388 1654.224 1654.086 1653.983 1653.864 1653.582 1653.084 1652.575 1652.275 1652.146 1652.081 1652.06 1652.033 1651.914 1651.705 1651.464 1651.276 1651.167 1651.081 1650.976 1650.815 1650.537 1650.168 1649.686 1648.951 1648.056 1647.224 1646.515 1646.081 1645.913 1645.762 1645.64 1645.781 1646.053 1646.119 1645.849 1645.426 1645.012 1644.612 1644.375 1644.407 1644.607 1644.812 1644.929 1644.896 1644.655 1644.244 1643.771 1643.285 1642.761 1642.242 1641.807 1641.433 1641.027 1640.589 1640.166 1639.72 1639.193 1638.496 1637.722 1637.113 1636.688 1636.282 1635.817 1635.336 1634.914 1634.719 1634.802 1634.913 1635.003 1635.176 1635.392 1635.579 1635.71 1635.799 1635.837 1635.847 1635.814 1635.613 1635.088 1634.148 1633.059 1632.245 1631.832 1631.638 1631.457 1631.221 1631.001 1630.787 1630.554 1630.281 1629.948 1629.587 1629.239 1628.933 1628.789 1628.794 1628.781 1628.744 1628.71 1628.648 1628.498 1628.199 1627.769 1627.33 1627.057 1626.98 1626.999 1627.016 1627.003 1626.96 1626.9 1626.835 1626.748 1626.58 1626.282 1625.96 1625.692 1625.42 1625.13 1624.846 1624.573 1624.345 1624.214 1624.062 1623.704 1623.21 1622.709 1622.32 1622.17 1622.261 1622.413 1622.51 1622.609 1622.739 1622.907 1623.11 1623.411 1623.858 1624.255 1624.469 1624.436 1624.182 1623.769 1623.242 1622.78 1622.491 1622.273 1622.073 1621.813 1621.431 1620.955 1620.467 1620.087 1619.8 1619.593 1619.498 1619.477 1619.505 1619.611 1619.833 1620.155 1620.522 1620.88 1621.165 1621.321 1621.328 1621.172 1620.896 1620.56 1620.089 1619.541 1619.099 1618.773 1618.458 1618.083 1617.654 1617.217 1616.935 1616.998 1617.319 1617.6 1617.685 1617.671 1617.588 1617.325 1616.906 1616.407 1615.836 1615.202 1614.584 1613.963 1613.273 1612.545 1611.772 1610.954 1610.173 1609.464 1608.956 1608.866 1609.062 1609.296 1609.478 1609.641 1610.022 1610.631 1611.153
1659.487 1659.356 1659.246 1659.223 1659.413 1659.713 1659.807 1659.491 1659.033 1658.764 1658.674 1658.65 1658.645 1658.588 1658.34 1658.003 1657.749 1657.474 1657.156 1656.934 1656.832 1656.795 1656.621 1656.274 1655.987 1655.808 1655.66 1655.524 1655.397 1655.261 1655.088 1654.827 1654.516 1654.345 1654.28 1654.207 1654.023 1653.619 1653.072 1652.595 1652.318 1652.19 1652.109 1652.079 1652.115 1652.117 1651.99 1651.801 1651.639 1651.48 1651.297 1651.06 1650.753 1650.4 1649.969 1649.434 1648.72 1647.884 1647.104 1646.451 1646.031 1645.806 1645.542 1645.272 1645.277 1645.479 1645.501 1645.205 1644.823 1644.546 1644.353 1644.342 1644.52 1644.754 1644.945 1644.976 1644.796 1644.421 1643.892 1643.359 1642.906 1642.478 1642.093 1641.814 1641.565 1641.264 1640.924 1640.527 1639.995 1639.281 1638.376 1637.447 1636.773 1636.384 1636.026 1635.565 1635.084 1634.685 1634.533 1634.676 1634.922 1635.187 1635.452 1635.623 1635.674 1635.698 1635.748 1635.782 1635.798 1635.746 1635.489 1634.886 1633.829 1632.677 1631.936 1631.634 1631.467 1631.223 1630.948 1630.762 1630.635 1630.498 1630.289 1629.988 1629.658 1629.361 1629.095 1628.906 1628.851 1628.813 1628.74 1628.684 1628.598 1628.452 1628.118 1627.547 1627.022 1626.738 1626.623 1626.585 1626.553 1626.5 1626.438 1626.373 1626.305 1626.232 1626.114 1625.843 1625.479 1625.202 1624.996 1624.768 1624.506 1624.215 1623.897 1623.644 1623.44 1623.082 1622.555 1621.906 1621.334 1621.137 1621.287 1621.509 1621.69 1621.839 1622.007 1622.284 1622.619 1622.993 1623.464 1623.86 1624.074 1624.155 1624.032 1623.639 1623.175 1622.878 1622.692 1622.482 1622.235 1621.915 1621.509 1621.048 1620.557 1620.049 1619.598 1619.353 1619.258 1619.186 1619.124 1619.112 1619.189 1619.372 1619.61 1619.938 1620.305 1620.577 1620.68 1620.64 1620.476 1620.147 1619.72 1619.336 1619.013 1618.698 1618.359 1617.974 1617.559 1617.153 1616.759 1616.482 1616.519 1616.778 1616.954 1617.031 1617.041 1616.831 1616.437 1615.962 1615.465 1614.931 1614.383 1613.78 1613.127 1612.561 1611.997 1611.272 1610.474 1609.685 1608.966 1608.579 1608.626 1608.837 1609.001 1609.099 1609.359 1609.957 1610.669
1659.255 1659.11 1659.009 1659.007 1659.221 1659.457 1659.386 1658.98 1658.429 1658.002 1657.909 1657.977 1658.056 1658.082 1657.932 1657.746 1657.611 1657.31 1656.882 1656.59 1656.514 1656.507 1656.4 1656.207 1656.027 1655.875 1655.728 1655.59 1655.465 1655.347 1655.196 1654.939 1654.68 1654.591 1654.568 1654.437 1654.11 1653.642 1653.161 1652.763 1652.506 1652.359 1652.242 1652.184 1652.219 1652.272 1652.215 1652.027 1651.802 1651.569 1651.322 1651.021 1650.631 1650.217 1649.765 1649.238 1648.623 1647.949 1647.286 1646.689 1646.211 1645.786 1645.355 1644.985 1644.828 1644.871 1644.842 1644.668 1644.511 1644.376 1644.176 1644.087 1644.247 1644.506 1644.716 1644.738 1644.494 1644.046 1643.5 1643.02 1642.633 1642.242 1641.906 1641.708 1641.586 1641.453 1641.217 1640.853 1640.341 1639.594 1638.673 1637.791 1637.092 1636.552 1636.063 1635.602 1635.184 1634.874 1634.814 1634.985 1635.237 1635.427 1635.533 1635.614 1635.656 1635.676 1635.709 1635.73 1635.73 1635.581 1635.152 1634.495 1633.548 1632.615 1632.096 1631.801 1631.446 1631.028 1630.666 1630.467 1630.364 1630.276 1630.162 1629.947 1629.65 1629.383 1629.17 1629.006 1628.947 1628.925 1628.835 1628.706 1628.513 1628.339 1628.059 1627.524 1626.94 1626.503 1626.224 1626.099 1626.041 1625.975 1625.91 1625.845 1625.775 1625.705 1625.618 1625.434 1625.138 1624.868 1624.654 1624.434 1624.177 1623.884 1623.541 1623.179 1622.864 1622.461 1621.873 1621.144 1620.512 1620.302 1620.467 1620.705 1620.921 1621.111 1621.302 1621.592 1621.979 1622.401 1622.83 1623.161 1623.392 1623.621 1623.683 1623.43 1623.135 1622.963 1622.79 1622.555 1622.287 1621.914 1621.457 1621.047 1620.668 1620.185 1619.66 1619.289 1619.052 1618.899 1618.814 1618.76 1618.727 1618.742 1618.807 1618.973 1619.317 1619.685 1619.837 1619.841 1619.757 1619.535 1619.277 1619.096 1618.921 1618.674 1618.324 1617.899 1617.454 1617.012 1616.47 1615.839 1615.534 1615.783 1616.192 1616.457 1616.578 1616.381 1615.915 1615.417 1614.989 1614.59 1614.182 1613.678 1613.096 1612.583 1612.092 1611.392 1610.538 1609.676 1608.847 1608.274 1608.184 1608.375 1608.599 1608.774 1609.004 1609.509 1610.239
1659.113 1658.939 1658.789 1658.802 1658.956 1658.953 1658.747 1658.358 1657.776 1657.401 1657.397 1657.485 1657.555 1657.586 1657.551 1657.55 1657.497 1657.169 1656.702 1656.375 1656.263 1656.183 1656.074 1656.029 1656.013 1655.925 1655.792 1655.663 1655.552 1655.439 1655.252 1655.002 1654.814 1654.766 1654.729 1654.523 1654.135 1653.726 1653.354 1652.999 1652.73 1652.548 1652.391 1652.339 1652.381 1652.436 1652.406 1652.17 1651.835 1651.551 1651.292 1650.971 1650.529 1650.033 1649.539 1649.039 1648.525 1647.964 1647.394 1646.922 1646.537 1646.07 1645.512 1644.964 1644.553 1644.428 1644.499 1644.575 1644.607 1644.509 1644.158 1643.868 1643.902 1644.075 1644.248 1644.302 1644.08 1643.618 1643.097 1642.693 1642.368 1642.011 1641.692 1641.52 1641.475 1641.467 1641.366 1641.098 1640.686 1640.091 1639.323 1638.514 1637.754 1637.046 1636.44 1636.024 1635.685 1635.439 1635.455 1635.617 1635.725 1635.712 1635.61 1635.579 1635.62 1635.655 1635.678 1635.682 1635.651 1635.462 1634.922 1634.092 1633.257 1632.64 1632.222 1631.768 1631.183 1630.657 1630.304 1630.131 1630.025 1629.927 1629.869 1629.77 1629.549 1629.284 1629.062 1628.952 1628.958 1628.925 1628.784 1628.588 1628.351 1628.135 1627.814 1627.277 1626.683 1626.203 1625.921 1625.801 1625.733 1625.669 1625.608 1625.545 1625.482 1625.425 1625.378 1625.271 1625.021 1624.727 1624.474 1624.213 1623.889 1623.523 1623.135 1622.718 1622.328 1621.903 1621.295 1620.565 1619.952 1619.723 1619.834 1619.996 1620.175 1620.385 1620.591 1620.846 1621.167 1621.523 1621.939 1622.376 1622.764 1623.109 1623.264 1623.145 1622.968 1622.823 1622.632 1622.379 1622.102 1621.729 1621.288 1620.913 1620.604 1620.262 1619.826 1619.373 1618.956 1618.649 1618.506 1618.439 1618.369 1618.292 1618.244 1618.239 1618.396 1618.745 1618.922 1618.892 1618.841 1618.785 1618.733 1618.71 1618.644 1618.475 1618.146 1617.703 1617.219 1616.708 1616.004 1615.088 1614.535 1614.771 1615.441 1615.984 1616.151 1615.856 1615.284 1614.764 1614.406 1614.135 1613.885 1613.505 1612.982 1612.496 1612.014 1611.274 1610.368 1609.48 1608.648 1608.002 1607.791 1607.991 1608.313 1608.567 1608.85 1609.315 1609.963
1659.063 1658.904 1658.721 1658.645 1658.604 1658.448 1658.206 1657.808 1657.359 1657.184 1657.225 1657.279 1657.323 1657.331 1657.28 1657.259 1657.215 1656.972 1656.599 1656.276 1656.041 1655.839 1655.699 1655.734 1655.893 1655.949 1655.86 1655.749 1655.667 1655.556 1655.375 1655.164 1654.96 1654.817 1654.684 1654.465 1654.149 1653.833 1653.508 1653.196 1652.934 1652.702 1652.536 1652.509 1652.552 1652.599 1652.592 1652.379 1651.994 1651.606 1651.268 1650.903 1650.398 1649.82 1649.285 1648.824 1648.386 1647.889 1647.438 1647.164 1646.973 1646.65 1646.1 1645.466 1644.953 1644.71 1644.774 1644.933 1644.937 1644.753 1644.355 1643.953 1643.72 1643.67 1643.76 1643.793 1643.6 1643.185 1642.709 1642.362 1642.085 1641.766 1641.49 1641.351 1641.328 1641.386 1641.446 1641.322 1641.013 1640.551 1639.884 1639.09 1638.301 1637.548 1636.916 1636.561 1636.3 1636.122 1636.145 1636.144 1636.016 1635.853 1635.687 1635.6 1635.599 1635.612 1635.63 1635.627 1635.553 1635.294 1634.642 1633.725 1633.016 1632.596 1632.157 1631.533 1630.835 1630.303 1629.951 1629.805 1629.757 1629.673 1629.659 1629.665 1629.476 1629.15 1628.874 1628.74 1628.719 1628.638 1628.445 1628.21 1627.968 1627.708 1627.301 1626.744 1626.287 1626.01 1625.828 1625.702 1625.623 1625.563 1625.503 1625.443 1625.393 1625.374 1625.368 1625.296 1625.055 1624.705 1624.363 1624.027 1623.646 1623.236 1622.796 1622.294 1621.834 1621.456 1620.941 1620.293 1619.747 1619.543 1619.613 1619.678 1619.723 1619.839 1620.066 1620.353 1620.633 1620.908 1621.274 1621.785 1622.283 1622.609 1622.714 1622.61 1622.477 1622.384 1622.258 1622.032 1621.673 1621.265 1620.923 1620.645 1620.391 1620.148 1619.83 1619.404 1618.924 1618.495 1618.237 1618.132 1618.051 1617.929 1617.816 1617.691 1617.637 1617.86 1618.035 1618.051 1618.074 1618.105 1618.166 1618.235 1618.217 1618.081 1617.781 1617.341 1616.833 1616.22 1615.4 1614.39 1613.741 1613.996 1614.86 1615.566 1615.67 1615.202 1614.464 1613.937 1613.76 1613.666 1613.555 1613.281 1612.832 1612.4 1611.902 1611.101 1610.154 1609.262 1608.402 1607.684 1607.462 1607.743 1608.112 1608.406 1608.768 1609.255 1609.833
1659.037 1658.902 1658.712 1658.494 1658.264 1658.064 1657.813 1657.416 1657.139 1657.105 1657.157 1657.206 1657.239 1657.214 1657.091 1656.959 1656.884 1656.759 1656.485 1656.141 1655.786 1655.48 1655.364 1655.472 1655.714 1655.909 1655.931 1655.89 1655.845 1655.735 1655.595 1655.433 1655.163 1654.822 1654.554 1654.382 1654.202 1653.973 1653.618 1653.252 1652.989 1652.789 1652.679 1652.665 1652.68 1652.689 1652.668 1652.524 1652.2 1651.755 1651.29 1650.768 1650.123 1649.473 1648.928 1648.539 1648.203 1647.767 1647.427 1647.315 1647.274 1647.144 1646.786 1646.256 1645.768 1645.469 1645.441 1645.529 1645.455 1645.241 1644.91 1644.389 1643.807 1643.478 1643.373 1643.223 1642.982 1642.702 1642.369 1642.033 1641.759 1641.511 1641.309 1641.218 1641.229 1641.344 1641.471 1641.374 1641.09 1640.741 1640.234 1639.543 1638.813 1638.063 1637.402 1637.066 1636.897 1636.756 1636.641 1636.45 1636.162 1635.846 1635.643 1635.58 1635.575 1635.567 1635.555 1635.508 1635.366 1635.042 1634.392 1633.59 1632.978 1632.534 1631.988 1631.292 1630.675 1630.289 1629.975 1629.798 1629.756 1629.669 1629.659 1629.699 1629.491 1629.096 1628.726 1628.457 1628.296 1628.143 1627.93 1627.698 1627.438 1627.056 1626.62 1626.281 1626.101 1625.992 1625.824 1625.65 1625.553 1625.493 1625.433 1625.387 1625.382 1625.399 1625.401 1625.354 1625.162 1624.799 1624.36 1623.921 1623.495 1623.066 1622.61 1622.099 1621.62 1621.273 1620.85 1620.283 1619.795 1619.595 1619.625 1619.644 1619.584 1619.618 1619.925 1620.298 1620.572 1620.793 1621.048 1621.411 1621.816 1622.099 1622.2 1622.112 1621.988 1621.907 1621.804 1621.604 1621.21 1620.76 1620.453 1620.251 1620.073 1619.913 1619.713 1619.391 1618.94 1618.466 1618.089 1617.872 1617.751 1617.615 1617.47 1617.3 1617.125 1617.153 1617.294 1617.389 1617.46 1617.53 1617.632 1617.718 1617.692 1617.53 1617.227 1616.803 1616.28 1615.578 1614.696 1613.747 1613.19 1613.487 1614.376 1615.103 1615.164 1614.598 1613.652 1612.938 1612.849 1613.032 1613.151 1613.036 1612.699 1612.282 1611.771 1610.997 1609.995 1609.002 1608.057 1607.297 1607.147 1607.492 1607.853 1608.184 1608.623 1609.163 1609.734
1658.964 1658.809 1658.585 1658.301 1657.983 1657.707 1657.432 1657.159 1657.025 1657.039 1657.093 1657.139 1657.161 1657.102 1656.941 1656.79 1656.718 1656.592 1656.341 1656.066 1655.778 1655.473 1655.319 1655.391 1655.608 1655.854 1656.023 1656.11 1656.091 1655.987 1655.875 1655.734 1655.396 1654.831 1654.451 1654.39 1654.292 1654.02 1653.587 1653.137 1652.855 1652.694 1652.602 1652.579 1652.572 1652.579 1652.613 1652.577 1652.344 1651.86 1651.276 1650.647 1649.938 1649.271 1648.767 1648.421 1648.046 1647.603 1647.352 1647.324 1647.346 1647.346 1647.205 1646.842 1646.444 1646.209 1646.129 1646.087 1645.976 1645.782 1645.447 1644.874 1644.136 1643.507 1643.038 1642.679 1642.388 1642.131 1641.869 1641.589 1641.367 1641.168 1640.991 1640.969 1641.099 1641.279 1641.382 1641.261 1640.982 1640.724 1640.389 1639.869 1639.231 1638.485 1637.828 1637.458 1637.295 1637.146 1636.924 1636.625 1636.206 1635.764 1635.533 1635.499 1635.517 1635.517 1635.496 1635.409 1635.167 1634.764 1634.177 1633.512 1632.952 1632.455 1631.859 1631.226 1630.756 1630.511 1630.269 1630.042 1629.956 1629.857 1629.782 1629.778 1629.551 1629.126 1628.694 1628.283 1627.927 1627.687 1627.526 1627.403 1627.237 1626.858 1626.416 1626.187 1626.123 1626.031 1625.822 1625.599 1625.483 1625.426 1625.39 1625.396 1625.424 1625.437 1625.433 1625.412 1625.285 1624.921 1624.375 1623.826 1623.347 1622.901 1622.476 1622.054 1621.612 1621.249 1620.862 1620.374 1619.927 1619.685 1619.656 1619.615 1619.486 1619.522 1619.91 1620.356 1620.643 1620.846 1621.03 1621.249 1621.467 1621.621 1621.762 1621.759 1621.607 1621.449 1621.334 1621.171 1620.829 1620.423 1620.093 1619.838 1619.625 1619.472 1619.383 1619.219 1618.854 1618.376 1617.956 1617.686 1617.532 1617.406 1617.26 1617.043 1616.804 1616.672 1616.686 1616.787 1616.896 1617.01 1617.132 1617.171 1617.08 1616.885 1616.632 1616.297 1615.804 1615.11 1614.226 1613.292 1612.847 1613.141 1613.84 1614.426 1614.507 1614.021 1613.012 1612.075 1611.86 1612.19 1612.563 1612.649 1612.449 1612.055 1611.503 1610.765 1609.8 1608.745 1607.716 1606.916 1606.78 1607.114 1607.484 1607.887 1608.377 1608.935 1609.507
1658.715 1658.527 1658.305 1658.057 1657.731 1657.403 1657.163 1657.015 1656.95 1656.971 1657.029 1657.076 1657.083 1656.988 1656.832 1656.733 1656.677 1656.541 1656.336 1656.154 1655.978 1655.742 1655.532 1655.479 1655.6 1655.823 1656.02 1656.1 1656.07 1656.004 1655.949 1655.872 1655.554 1654.935 1654.52 1654.445 1654.287 1653.915 1653.404 1652.921 1652.647 1652.495 1652.367 1652.318 1652.307 1652.329 1652.455 1652.565 1652.432 1651.952 1651.305 1650.653 1650.006 1649.426 1648.946 1648.489 1647.942 1647.448 1647.267 1647.289 1647.332 1647.362 1647.276 1646.992 1646.675 1646.491 1646.402 1646.305 1646.185 1646.015 1645.697 1645.2 1644.493 1643.676 1642.875 1642.263 1641.882 1641.586 1641.32 1641.104 1640.931 1640.694 1640.43 1640.439 1640.695 1640.963 1641.108 1641.058 1640.875 1640.715 1640.487 1640.076 1639.514 1638.826 1638.237 1637.883 1637.659 1637.424 1637.11 1636.686 1636.146 1635.655 1635.439 1635.435 1635.465 1635.47 1635.412 1635.2 1634.795 1634.267 1633.674 1633.141 1632.774 1632.448 1631.975 1631.442 1631.033 1630.79 1630.563 1630.329 1630.196 1630.097 1630.01 1629.912 1629.616 1629.179 1628.734 1628.264 1627.799 1627.485 1627.359 1627.349 1627.3 1627.006 1626.586 1626.298 1626.169 1626.051 1625.82 1625.568 1625.431 1625.395 1625.413 1625.453 1625.473 1625.471 1625.47 1625.483 1625.371 1624.914 1624.253 1623.652 1623.163 1622.716 1622.307 1621.959 1621.596 1621.226 1620.846 1620.445 1620.062 1619.776 1619.642 1619.496 1619.327 1619.4 1619.816 1620.297 1620.639 1620.864 1621.029 1621.234 1621.381 1621.428 1621.508 1621.476 1621.276 1621.061 1620.918 1620.788 1620.552 1620.212 1619.859 1619.554 1619.288 1619.059 1618.946 1618.866 1618.625 1618.221 1617.832 1617.585 1617.456 1617.378 1617.252 1617.012 1616.73 1616.519 1616.401 1616.367 1616.406 1616.513 1616.607 1616.578 1616.437 1616.282 1616.145 1615.886 1615.417 1614.76 1613.959 1613.153 1612.724 1612.799 1613.265 1613.771 1613.906 1613.529 1612.643 1611.708 1611.221 1611.369 1611.822 1612.064 1612.01 1611.677 1611.091 1610.356 1609.48 1608.454 1607.377 1606.572 1606.393 1606.653 1607.072 1607.538 1607.998 1608.456 1608.933
1658.356 1658.152 1657.99 1657.789 1657.487 1657.18 1657.005 1656.926 1656.887 1656.91 1656.963 1657.006 1656.997 1656.893 1656.775 1656.7 1656.641 1656.568 1656.444 1656.294 1656.173 1656.033 1655.84 1655.695 1655.659 1655.696 1655.748 1655.74 1655.718 1655.754 1655.815 1655.851 1655.647 1655.129 1654.711 1654.464 1654.176 1653.734 1653.16 1652.684 1652.44 1652.303 1652.153 1652.053 1652.024 1652.059 1652.223 1652.436 1652.455 1652.085 1651.439 1650.778 1650.199 1649.71 1649.265 1648.739 1648.079 1647.511 1647.281 1647.284 1647.334 1647.344 1647.209 1646.922 1646.593 1646.34 1646.251 1646.202 1646.101 1645.958 1645.715 1645.348 1644.736 1643.866 1642.901 1642.058 1641.501 1641.165 1640.892 1640.64 1640.408 1640.055 1639.641 1639.597 1639.886 1640.247 1640.571 1640.744 1640.751 1640.668 1640.481 1640.125 1639.625 1639.088 1638.655 1638.319 1637.974 1637.577 1637.077 1636.471 1635.887 1635.492 1635.356 1635.372 1635.409 1635.376 1635.194 1634.828 1634.338 1633.739 1633.106 1632.667 1632.445 1632.311 1632.07 1631.712 1631.348 1631.031 1630.711 1630.424 1630.267 1630.173 1630.087 1629.954 1629.656 1629.238 1628.788 1628.307 1627.838 1627.488 1627.332 1627.368 1627.382 1627.13 1626.745 1626.409 1626.161 1625.966 1625.747 1625.535 1625.429 1625.44 1625.485 1625.517 1625.544 1625.587 1625.636 1625.654 1625.443 1624.806 1623.973 1623.334 1622.928 1622.531 1622.12 1621.792 1621.502 1621.169 1620.797 1620.418 1620.045 1619.732 1619.505 1619.29 1619.139 1619.249 1619.637 1620.092 1620.492 1620.803 1621.022 1621.245 1621.398 1621.408 1621.343 1621.178 1620.93 1620.694 1620.56 1620.503 1620.361 1620.08 1619.738 1619.386 1619.073 1618.796 1618.593 1618.485 1618.342 1618.062 1617.739 1617.554 1617.499 1617.482 1617.392 1617.172 1616.881 1616.647 1616.454 1616.271 1616.154 1616.097 1616.047 1615.955 1615.835 1615.767 1615.695 1615.453 1615.008 1614.371 1613.638 1612.939 1612.44 1612.292 1612.597 1613.099 1613.274 1612.961 1612.221 1611.332 1610.621 1610.471 1610.859 1611.244 1611.321 1611.088 1610.587 1609.848 1608.95 1607.951 1606.935 1606.184 1605.963 1606.22 1606.707 1607.169 1607.559 1607.892 1608.24
1658.208 1657.944 1657.787 1657.573 1657.291 1657.005 1656.822 1656.724 1656.666 1656.741 1656.874 1656.933 1656.913 1656.826 1656.726 1656.638 1656.583 1656.577 1656.524 1656.412 1656.321 1656.254 1656.115 1655.884 1655.64 1655.47 1655.365 1655.264 1655.233 1655.358 1655.507 1655.585 1655.486 1655.159 1654.757 1654.375 1654.019 1653.503 1652.88 1652.445 1652.246 1652.131 1651.97 1651.803 1651.743 1651.792 1651.962 1652.213 1652.381 1652.206 1651.636 1650.979 1650.434 1649.977 1649.553 1649.042 1648.379 1647.748 1647.388 1647.308 1647.337 1647.314 1647.128 1646.812 1646.415 1646.043 1645.867 1645.817 1645.75 1645.622 1645.401 1645.092 1644.594 1643.81 1642.896 1642.022 1641.323 1640.887 1640.565 1640.185 1639.773 1639.291 1638.781 1638.625 1638.878 1639.302 1639.773 1640.166 1640.328 1640.31 1640.197 1639.919 1639.519 1639.189 1638.939 1638.616 1638.127 1637.509 1636.809 1636.087 1635.544 1635.334 1635.316 1635.325 1635.328 1635.204 1634.896 1634.463 1633.93 1633.348 1632.858 1632.551 1632.383 1632.284 1632.136 1631.897 1631.564 1631.18 1630.763 1630.408 1630.233 1630.142 1630.009 1629.798 1629.53 1629.212 1628.828 1628.374 1627.936 1627.618 1627.439 1627.417 1627.432 1627.223 1626.867 1626.5 1626.177 1625.991 1625.834 1625.657 1625.546 1625.531 1625.553 1625.572 1625.585 1625.562 1625.499 1625.43 1625.187 1624.517 1623.595 1622.874 1622.535 1622.278 1621.923 1621.598 1621.34 1621.037 1620.635 1620.212 1619.823 1619.503 1619.262 1619.085 1618.993 1619.082 1619.385 1619.781 1620.183 1620.574 1620.912 1621.179 1621.323 1621.279 1621.087 1620.83 1620.521 1620.204 1620.084 1620.143 1620.167 1620.036 1619.748 1619.352 1618.956 1618.626 1618.401 1618.231 1618.049 1617.832 1617.627 1617.559 1617.602 1617.63 1617.552 1617.372 1617.091 1616.806 1616.535 1616.246 1616.005 1615.804 1615.585 1615.399 1615.303 1615.258 1615.176 1614.967 1614.584 1613.972 1613.256 1612.558 1611.955 1611.64 1611.813 1612.26 1612.433 1612.17 1611.495 1610.646 1609.929 1609.639 1609.895 1610.282 1610.366 1610.193 1609.818 1609.089 1608.117 1607.169 1606.323 1605.746 1605.675 1605.988 1606.393 1606.767 1607.091 1607.346 1607.63
1658.396 1658.069 1657.815 1657.543 1657.24 1656.891 1656.614 1656.409 1656.231 1656.296 1656.536 1656.703 1656.732 1656.662 1656.562 1656.485 1656.5 1656.613 1656.666 1656.553 1656.352 1656.247 1656.135 1655.858 1655.51 1655.25 1655.058 1654.834 1654.724 1654.873 1655.063 1655.136 1655.133 1655.006 1654.628 1654.143 1653.712 1653.183 1652.587 1652.211 1652.064 1651.967 1651.803 1651.586 1651.477 1651.529 1651.702 1651.958 1652.214 1652.248 1651.845 1651.235 1650.694 1650.234 1649.789 1649.271 1648.654 1648.026 1647.568 1647.366 1647.336 1647.276 1647.032 1646.646 1646.184 1645.723 1645.385 1645.223 1645.153 1645.053 1644.849 1644.572 1644.175 1643.5 1642.698 1641.936 1641.259 1640.759 1640.336 1639.813 1639.217 1638.636 1638.185 1637.988 1638.047 1638.355 1638.905 1639.443 1639.699 1639.755 1639.727 1639.561 1639.305 1639.122 1638.966 1638.64 1638.072 1637.261 1636.4 1635.718 1635.339 1635.271 1635.295 1635.293 1635.254 1635.03 1634.645 1634.185 1633.657 1633.221 1632.93 1632.689 1632.51 1632.365 1632.186 1631.986 1631.71 1631.323 1630.881 1630.484 1630.246 1630.122 1629.934 1629.589 1629.258 1629.019 1628.77 1628.441 1628.101 1627.877 1627.716 1627.573 1627.505 1627.297 1626.882 1626.464 1626.228 1626.136 1626.035 1625.902 1625.768 1625.638 1625.48 1625.329 1625.19 1625.016 1624.869 1624.829 1624.665 1624.061 1623.172 1622.4 1622.03 1621.854 1621.625 1621.38 1621.174 1620.894 1620.422 1619.917 1619.51 1619.226 1619.071 1618.97 1618.88 1618.929 1619.161 1619.489 1619.874 1620.284 1620.67 1620.968 1621.094 1621.006 1620.761 1620.448 1620.034 1619.618 1619.533 1619.695 1619.863 1619.918 1619.776 1619.51 1619.15 1618.774 1618.462 1618.191 1617.929 1617.688 1617.535 1617.51 1617.562 1617.56 1617.453 1617.302 1617.043 1616.725 1616.399 1616.073 1615.827 1615.618 1615.34 1615.049 1614.83 1614.616 1614.442 1614.374 1614.14 1613.569 1612.877 1612.232 1611.655 1611.26 1611.222 1611.441 1611.515 1611.286 1610.711 1609.978 1609.353 1608.981 1609.004 1609.254 1609.322 1609.176 1608.85 1608.182 1607.267 1606.354 1605.627 1605.284 1605.411 1605.707 1605.993 1606.385 1606.707 1606.878 1607.087
1658.673 1658.32 1657.994 1657.652 1657.245 1656.788 1656.438 1656.222 1656.083 1656.115 1656.301 1656.461 1656.459 1656.358 1656.294 1656.315 1656.424 1656.601 1656.681 1656.451 1656.083 1655.957 1655.891 1655.661 1655.337 1655.039 1654.733 1654.344 1654.134 1654.32 1654.642 1654.852 1654.949 1654.87 1654.463 1653.839 1653.272 1652.775 1652.282 1651.991 1651.888 1651.802 1651.65 1651.402 1651.23 1651.269 1651.447 1651.701 1652.005 1652.153 1651.844 1651.293 1650.832 1650.436 1649.987 1649.456 1648.875 1648.295 1647.807 1647.495 1647.355 1647.201 1646.871 1646.432 1645.994 1645.565 1645.173 1644.93 1644.84 1644.748 1644.506 1644.182 1643.863 1643.35 1642.667 1641.976 1641.343 1640.801 1640.233 1639.571 1638.9 1638.34 1637.985 1637.792 1637.694 1637.799 1638.15 1638.593 1638.983 1639.189 1639.231 1639.183 1639.102 1639.033 1638.899 1638.512 1637.816 1636.881 1635.978 1635.405 1635.222 1635.245 1635.262 1635.241 1635.159 1634.869 1634.448 1633.964 1633.446 1633.12 1632.936 1632.748 1632.58 1632.42 1632.242 1632.076 1631.847 1631.479 1631.041 1630.619 1630.312 1630.145 1629.936 1629.558 1629.231 1629.05 1628.892 1628.702 1628.491 1628.304 1628.134 1627.914 1627.664 1627.271 1626.73 1626.297 1626.134 1626.072 1625.986 1625.893 1625.781 1625.586 1625.215 1624.76 1624.401 1624.179 1624.127 1624.209 1624.118 1623.589 1622.849 1622.158 1621.734 1621.533 1621.366 1621.198 1621.041 1620.779 1620.282 1619.723 1619.3 1619.081 1619.016 1618.928 1618.779 1618.795 1618.997 1619.279 1619.645 1620.048 1620.431 1620.726 1620.816 1620.684 1620.434 1620.149 1619.751 1619.29 1619.119 1619.269 1619.522 1619.7 1619.691 1619.607 1619.402 1619.024 1618.614 1618.277 1617.979 1617.706 1617.528 1617.443 1617.422 1617.339 1617.129 1616.964 1616.777 1616.476 1616.12 1615.775 1615.528 1615.341 1615.08 1614.762 1614.465 1614.134 1613.824 1613.685 1613.552 1613.165 1612.611 1612.05 1611.518 1611.104 1610.891 1610.847 1610.759 1610.468 1609.983 1609.375 1608.743 1608.202 1607.956 1608.081 1608.249 1608.178 1607.836 1607.222 1606.452 1605.641 1604.975 1604.732 1604.997 1605.334 1605.593 1605.996 1606.337 1606.507 1606.675
1658.932 1658.57 1658.214 1657.81 1657.312 1656.786 1656.364 1656.151 1656.14 1656.228 1656.334 1656.341 1656.215 1656.116 1656.146 1656.262 1656.395 1656.489 1656.474 1656.227 1655.861 1655.698 1655.591 1655.369 1655.083 1654.732 1654.267 1653.762 1653.538 1653.782 1654.255 1654.644 1654.862 1654.824 1654.425 1653.702 1652.946 1652.363 1651.974 1651.793 1651.716 1651.638 1651.495 1651.223 1651.001 1651.028 1651.217 1651.506 1651.831 1651.905 1651.545 1651.034 1650.673 1650.393 1650.012 1649.506 1648.947 1648.406 1647.945 1647.578 1647.322 1647.131 1646.824 1646.423 1646.03 1645.623 1645.208 1644.928 1644.815 1644.683 1644.393 1644.039 1643.717 1643.307 1642.783 1642.221 1641.633 1640.99 1640.235 1639.453 1638.794 1638.291 1637.954 1637.737 1637.621 1637.667 1637.831 1638.061 1638.345 1638.57 1638.703 1638.769 1638.805 1638.847 1638.75 1638.237 1637.367 1636.416 1635.632 1635.217 1635.155 1635.219 1635.271 1635.267 1635.098 1634.722 1634.261 1633.748 1633.248 1632.977 1632.849 1632.764 1632.754 1632.725 1632.575 1632.323 1631.994 1631.588 1631.15 1630.735 1630.43 1630.26 1630.057 1629.749 1629.517 1629.408 1629.315 1629.185 1628.989 1628.693 1628.351 1628.035 1627.676 1627.142 1626.542 1626.115 1625.923 1625.835 1625.753 1625.671 1625.56 1625.349 1624.912 1624.243 1623.682 1623.46 1623.493 1623.619 1623.617 1623.274 1622.705 1622.09 1621.615 1621.361 1621.2 1621.061 1620.932 1620.717 1620.292 1619.725 1619.267 1619.07 1619.019 1618.889 1618.668 1618.635 1618.776 1619.01 1619.368 1619.774 1620.16 1620.426 1620.453 1620.304 1620.114 1619.892 1619.534 1619.083 1618.79 1618.79 1618.997 1619.216 1619.345 1619.445 1619.42 1619.146 1618.74 1618.376 1618.045 1617.768 1617.562 1617.399 1617.357 1617.299 1617.079 1616.796 1616.538 1616.264 1615.942 1615.604 1615.284 1615.003 1614.717 1614.406 1614.112 1613.818 1613.49 1613.221 1613.037 1612.777 1612.379 1611.873 1611.318 1610.868 1610.594 1610.452 1610.29 1609.927 1609.399 1608.807 1608.174 1607.55 1607.187 1607.17 1607.247 1607.174 1606.837 1606.288 1605.69 1605.091 1604.613 1604.552 1604.873 1605.15 1605.322 1605.614 1605.96 1606.192 1606.371
1659.192 1658.824 1658.445 1658.011 1657.508 1656.964 1656.462 1656.14 1656.125 1656.29 1656.356 1656.244 1656.083 1656.043 1656.146 1656.285 1656.376 1656.377 1656.28 1656.067 1655.763 1655.488 1655.232 1654.949 1654.642 1654.233 1653.67 1653.189 1653.124 1653.434 1653.892 1654.314 1654.62 1654.728 1654.45 1653.716 1652.822 1652.04 1651.541 1651.413 1651.428 1651.388 1651.207 1650.943 1650.813 1650.877 1651.029 1651.242 1651.467 1651.443 1651.056 1650.603 1650.333 1650.132 1649.826 1649.395 1648.874 1648.351 1647.918 1647.521 1647.16 1646.953 1646.822 1646.572 1646.193 1645.736 1645.277 1644.969 1644.818 1644.62 1644.302 1643.953 1643.596 1643.203 1642.774 1642.325 1641.82 1641.2 1640.443 1639.569 1638.751 1638.188 1637.839 1637.635 1637.59 1637.658 1637.756 1637.858 1637.976 1638.122 1638.257 1638.32 1638.349 1638.41 1638.309 1637.748 1636.825 1635.931 1635.354 1635.131 1635.126 1635.184 1635.258 1635.259 1635.024 1634.591 1634.112 1633.628 1633.188 1632.938 1632.877 1632.918 1633.008 1633.035 1632.866 1632.516 1632.087 1631.638 1631.211 1630.849 1630.601 1630.43 1630.177 1629.859 1629.698 1629.653 1629.547 1629.36 1629.095 1628.725 1628.285 1627.921 1627.536 1626.988 1626.425 1625.99 1625.735 1625.593 1625.495 1625.415 1625.285 1625.066 1624.685 1623.991 1623.341 1623.128 1623.191 1623.307 1623.362 1623.17 1622.684 1622.08 1621.556 1621.236 1621.062 1620.935 1620.822 1620.667 1620.348 1619.81 1619.326 1619.116 1619.021 1618.81 1618.522 1618.453 1618.545 1618.701 1618.99 1619.373 1619.747 1619.969 1619.936 1619.781 1619.662 1619.516 1619.215 1618.866 1618.562 1618.347 1618.317 1618.469 1618.689 1618.929 1619.099 1619.055 1618.802 1618.442 1618.075 1617.799 1617.553 1617.365 1617.371 1617.359 1617.154 1616.764 1616.364 1616.1 1615.85 1615.498 1615.094 1614.719 1614.383 1614.04 1613.729 1613.48 1613.226 1612.968 1612.723 1612.406 1611.937 1611.354 1610.741 1610.279 1610.1 1610.05 1609.899 1609.521 1608.955 1608.336 1607.728 1607.085 1606.617 1606.458 1606.391 1606.254 1605.952 1605.503 1605.072 1604.716 1604.521 1604.622 1604.893 1605.076 1605.172 1605.361 1605.661 1605.909 1606.097
1659.473 1659.1 1658.707 1658.258 1657.76 1657.206 1656.674 1656.291 1656.204 1656.323 1656.362 1656.241 1656.092 1656.073 1656.184 1656.292 1656.315 1656.27 1656.172 1655.967 1655.628 1655.194 1654.793 1654.436 1654.053 1653.575 1653.023 1652.714 1652.873 1653.257 1653.664 1654.039 1654.321 1654.443 1654.222 1653.519 1652.588 1651.742 1651.237 1651.152 1651.221 1651.209 1650.997 1650.734 1650.647 1650.707 1650.804 1650.881 1650.922 1650.845 1650.515 1650.167 1649.976 1649.8 1649.526 1649.166 1648.73 1648.253 1647.816 1647.408 1647.014 1646.761 1646.721 1646.637 1646.306 1645.819 1645.345 1645.008 1644.802 1644.542 1644.197 1643.824 1643.437 1643.075 1642.722 1642.354 1641.912 1641.383 1640.738 1639.86 1638.881 1638.078 1637.586 1637.44 1637.481 1637.55 1637.615 1637.679 1637.758 1637.862 1637.928 1637.887 1637.8 1637.736 1637.577 1637.072 1636.241 1635.48 1635.131 1635.073 1635.083 1635.143 1635.263 1635.233 1634.952 1634.533 1634.084 1633.643 1633.245 1632.99 1632.933 1633 1633.083 1633.096 1632.926 1632.577 1632.144 1631.679 1631.271 1630.996 1630.792 1630.529 1630.141 1629.776 1629.615 1629.523 1629.34 1629.109 1628.853 1628.519 1628.118 1627.766 1627.38 1626.879 1626.368 1625.904 1625.601 1625.414 1625.266 1625.157 1625.022 1624.845 1624.547 1623.947 1623.367 1623.136 1623.153 1623.249 1623.283 1623.08 1622.63 1622.081 1621.536 1621.134 1620.928 1620.801 1620.706 1620.638 1620.405 1619.909 1619.413 1619.126 1618.955 1618.706 1618.402 1618.315 1618.409 1618.507 1618.664 1618.958 1619.263 1619.424 1619.359 1619.184 1619.085 1619.069 1618.973 1618.754 1618.451 1618.105 1617.812 1617.728 1617.895 1618.207 1618.533 1618.725 1618.698 1618.437 1618.091 1617.792 1617.489 1617.313 1617.363 1617.341 1617.091 1616.682 1616.25 1615.924 1615.618 1615.233 1614.824 1614.48 1614.149 1613.753 1613.38 1613.095 1612.869 1612.651 1612.336 1611.85 1611.234 1610.575 1609.917 1609.416 1609.303 1609.377 1609.244 1608.831 1608.287 1607.72 1607.135 1606.473 1605.935 1605.712 1605.598 1605.402 1605.136 1604.843 1604.567 1604.379 1604.372 1604.556 1604.812 1605.007 1605.119 1605.243 1605.422 1605.595 1605.72
1659.811 1659.409 1658.954 1658.464 1657.973 1657.458 1656.98 1656.632 1656.477 1656.431 1656.401 1656.333 1656.219 1656.157 1656.205 1656.245 1656.207 1656.122 1655.987 1655.748 1655.329 1654.794 1654.311 1653.894 1653.443 1652.886 1652.406 1652.36 1652.694 1653.131 1653.519 1653.735 1653.802 1653.779 1653.569 1652.99 1652.193 1651.573 1651.28 1651.244 1651.274 1651.19 1650.963 1650.717 1650.56 1650.519 1650.549 1650.524 1650.427 1650.291 1650.026 1649.778 1649.622 1649.449 1649.191 1648.863 1648.512 1648.147 1647.759 1647.362 1646.962 1646.661 1646.578 1646.506 1646.254 1645.861 1645.414 1645.031 1644.746 1644.411 1643.992 1643.554 1643.152 1642.854 1642.603 1642.364 1642.091 1641.65 1641.03 1640.249 1639.317 1638.361 1637.612 1637.307 1637.315 1637.372 1637.424 1637.484 1637.561 1637.629 1637.62 1637.527 1637.341 1637.073 1636.793 1636.336 1635.664 1635.159 1635.022 1635.039 1635.062 1635.158 1635.291 1635.222 1634.936 1634.556 1634.134 1633.707 1633.347 1633.135 1633.057 1633.049 1633.063 1633.045 1632.866 1632.469 1632.019 1631.622 1631.281 1631.053 1630.835 1630.451 1629.975 1629.618 1629.398 1629.206 1628.939 1628.624 1628.415 1628.222 1627.923 1627.6 1627.244 1626.819 1626.332 1625.829 1625.494 1625.289 1625.1 1624.938 1624.8 1624.679 1624.468 1624.027 1623.576 1623.314 1623.245 1623.263 1623.149 1622.758 1622.233 1621.746 1621.315 1620.978 1620.77 1620.657 1620.646 1620.673 1620.498 1620.048 1619.543 1619.142 1618.86 1618.601 1618.309 1618.178 1618.237 1618.311 1618.398 1618.52 1618.644 1618.789 1618.798 1618.641 1618.557 1618.698 1618.83 1618.715 1618.467 1618.124 1617.623 1617.218 1617.203 1617.568 1618.013 1618.338 1618.465 1618.308 1618.017 1617.706 1617.374 1617.186 1617.208 1617.201 1616.994 1616.629 1616.231 1615.856 1615.443 1614.978 1614.556 1614.248 1613.941 1613.532 1613.115 1612.762 1612.487 1612.252 1611.896 1611.311 1610.623 1609.941 1609.258 1608.66 1608.391 1608.423 1608.34 1607.946 1607.431 1606.92 1606.359 1605.711 1605.191 1604.984 1604.902 1604.77 1604.572 1604.344 1604.138 1604.046 1604.158 1604.428 1604.738 1604.991 1605.132 1605.168 1605.144 1605.144 1605.189
1660.089 1659.604 1659.048 1658.521 1658.091 1657.687 1657.34 1657.052 1656.811 1656.609 1656.494 1656.431 1656.328 1656.205 1656.108 1656.01 1655.886 1655.738 1655.561 1655.28 1654.817 1654.321 1653.88 1653.418 1652.9 1652.36 1652.041 1652.164 1652.518 1652.929 1653.253 1653.307 1653.173 1652.993 1652.778 1652.442 1651.999 1651.662 1651.506 1651.463 1651.381 1651.177 1650.933 1650.698 1650.491 1650.385 1650.367 1650.276 1650.051 1649.808 1649.592 1649.414 1649.267 1649.097 1648.852 1648.552 1648.285 1648.045 1647.74 1647.359 1646.943 1646.574 1646.339 1646.154 1645.934 1645.681 1645.371 1644.977 1644.554 1644.115 1643.646 1643.18 1642.78 1642.527 1642.32 1642.148 1642.088 1641.889 1641.407 1640.744 1639.9 1638.913 1637.973 1637.376 1637.204 1637.219 1637.252 1637.295 1637.345 1637.373 1637.362 1637.286 1637.019 1636.596 1636.171 1635.716 1635.252 1635 1634.988 1635.011 1635.035 1635.162 1635.274 1635.183 1634.932 1634.597 1634.193 1633.794 1633.506 1633.349 1633.26 1633.209 1633.157 1633.022 1632.682 1632.12 1631.58 1631.286 1631.123 1630.97 1630.738 1630.327 1629.875 1629.54 1629.261 1628.986 1628.679 1628.303 1628.02 1627.862 1627.695 1627.481 1627.191 1626.801 1626.303 1625.769 1625.404 1625.182 1624.965 1624.764 1624.659 1624.595 1624.467 1624.198 1623.843 1623.553 1623.402 1623.256 1622.916 1622.36 1621.767 1621.319 1621.037 1620.809 1620.625 1620.583 1620.662 1620.71 1620.512 1620.039 1619.526 1619.124 1618.803 1618.508 1618.224 1618.038 1617.992 1618.015 1618.081 1618.098 1618.063 1618.161 1618.253 1618.156 1618.099 1618.316 1618.628 1618.765 1618.655 1618.234 1617.564 1616.991 1616.826 1617.139 1617.589 1617.948 1618.149 1618.085 1617.86 1617.548 1617.15 1616.828 1616.77 1616.821 1616.741 1616.483 1616.143 1615.793 1615.376 1614.886 1614.434 1614.076 1613.742 1613.316 1612.862 1612.472 1612.141 1611.865 1611.532 1610.978 1610.293 1609.6 1608.897 1608.241 1607.747 1607.425 1607.197 1606.889 1606.448 1605.98 1605.497 1604.926 1604.442 1604.24 1604.225 1604.245 1604.185 1604.03 1603.833 1603.741 1603.93 1604.285 1604.65 1604.973 1605.149 1605.097 1604.871 1604.674 1604.728
1660.236 1659.656 1659.025 1658.475 1658.11 1657.828 1657.59 1657.343 1657.071 1656.817 1656.611 1656.42 1656.206 1656.036 1655.926 1655.752 1655.513 1655.27 1655.03 1654.707 1654.276 1653.94 1653.575 1653.052 1652.493 1652.042 1651.863 1651.98 1652.271 1652.618 1652.875 1652.908 1652.737 1652.496 1652.286 1652.143 1652.012 1651.867 1651.762 1651.641 1651.371 1651.092 1650.867 1650.628 1650.391 1650.269 1650.222 1650.047 1649.669 1649.244 1649.012 1648.944 1648.883 1648.748 1648.53 1648.289 1648.094 1647.926 1647.694 1647.34 1646.895 1646.398 1645.94 1645.628 1645.438 1645.324 1645.158 1644.799 1644.296 1643.742 1643.244 1642.79 1642.371 1642.082 1641.866 1641.7 1641.741 1641.759 1641.531 1641.069 1640.358 1639.442 1638.437 1637.621 1637.237 1637.138 1637.119 1637.129 1637.145 1637.174 1637.189 1637.082 1636.73 1636.239 1635.734 1635.28 1635 1634.925 1634.953 1634.972 1635.017 1635.124 1635.161 1635.053 1634.857 1634.594 1634.254 1633.925 1633.716 1633.592 1633.492 1633.391 1633.216 1632.897 1632.409 1631.83 1631.298 1630.974 1630.87 1630.797 1630.597 1630.233 1629.829 1629.517 1629.218 1628.891 1628.573 1628.218 1627.855 1627.647 1627.569 1627.445 1627.196 1626.795 1626.267 1625.733 1625.356 1625.089 1624.809 1624.598 1624.555 1624.552 1624.501 1624.383 1624.125 1623.797 1623.489 1623.154 1622.715 1622.165 1621.638 1621.255 1621.005 1620.804 1620.644 1620.611 1620.662 1620.592 1620.276 1619.804 1619.332 1618.984 1618.691 1618.399 1618.141 1617.932 1617.793 1617.722 1617.721 1617.707 1617.611 1617.642 1617.729 1617.658 1617.635 1617.9 1618.34 1618.66 1618.626 1618.176 1617.475 1616.836 1616.55 1616.783 1617.21 1617.562 1617.767 1617.784 1617.663 1617.385 1616.928 1616.422 1616.182 1616.203 1616.249 1616.129 1615.87 1615.59 1615.261 1614.859 1614.435 1614.022 1613.604 1613.103 1612.58 1612.174 1611.847 1611.513 1611.145 1610.697 1610.09 1609.408 1608.771 1608.166 1607.48 1606.732 1606.186 1605.802 1605.404 1605.008 1604.605 1604.145 1603.794 1603.65 1603.688 1603.787 1603.796 1603.727 1603.589 1603.5 1603.739 1604.18 1604.595 1604.924 1605.054 1604.945 1604.638 1604.337 1604.427
1660.148 1659.579 1658.945 1658.385 1658.055 1657.852 1657.627 1657.34 1657.086 1656.822 1656.464 1656.12 1655.85 1655.717 1655.719 1655.608 1655.34 1655.043 1654.76 1654.452 1654.073 1653.725 1653.233 1652.589 1651.997 1651.631 1651.569 1651.686 1651.939 1652.229 1652.455 1652.541 1652.417 1652.19 1652.013 1651.955 1651.945 1651.878 1651.769 1651.593 1651.273 1651.003 1650.797 1650.535 1650.269 1650.129 1650.015 1649.8 1649.44 1648.879 1648.446 1648.335 1648.336 1648.301 1648.215 1648.09 1647.956 1647.821 1647.63 1647.284 1646.771 1646.137 1645.525 1645.125 1644.94 1644.85 1644.735 1644.513 1644.107 1643.493 1642.852 1642.353 1641.972 1641.62 1641.287 1641.07 1641.135 1641.25 1641.188 1640.903 1640.336 1639.675 1638.886 1638.009 1637.415 1637.165 1637.057 1636.993 1636.967 1637.004 1637.023 1636.831 1636.391 1635.861 1635.349 1634.981 1634.867 1634.88 1634.899 1634.92 1634.982 1635.034 1634.999 1634.874 1634.706 1634.512 1634.284 1634.067 1633.902 1633.763 1633.596 1633.354 1633.02 1632.605 1632.126 1631.652 1631.209 1630.85 1630.676 1630.566 1630.384 1630.095 1629.764 1629.494 1629.198 1628.848 1628.509 1628.184 1627.882 1627.688 1627.574 1627.414 1627.157 1626.777 1626.299 1625.82 1625.421 1625.08 1624.76 1624.546 1624.485 1624.479 1624.479 1624.472 1624.328 1623.999 1623.556 1623.084 1622.62 1622.164 1621.784 1621.479 1621.21 1620.98 1620.808 1620.707 1620.58 1620.285 1619.839 1619.385 1619.014 1618.737 1618.488 1618.296 1618.135 1617.956 1617.812 1617.697 1617.581 1617.438 1617.252 1617.199 1617.243 1617.209 1617.217 1617.493 1617.992 1618.334 1618.248 1617.775 1617.09 1616.417 1616.057 1616.279 1616.774 1617.148 1617.287 1617.271 1617.179 1616.979 1616.612 1616.081 1615.712 1615.671 1615.728 1615.671 1615.505 1615.289 1615.009 1614.655 1614.277 1613.88 1613.419 1612.853 1612.266 1611.825 1611.48 1611.099 1610.69 1610.326 1609.881 1609.311 1608.757 1608.245 1607.597 1606.697 1605.81 1605.099 1604.548 1604.146 1603.767 1603.466 1603.385 1603.351 1603.369 1603.47 1603.505 1603.46 1603.375 1603.352 1603.596 1604.054 1604.517 1604.844 1604.917 1604.748 1604.375 1604.081 1604.301
1659.778 1659.256 1658.681 1658.196 1657.975 1657.872 1657.639 1657.314 1656.999 1656.585 1656.078 1655.677 1655.433 1655.369 1655.47 1655.478 1655.262 1654.949 1654.698 1654.492 1654.182 1653.739 1653.102 1652.348 1651.698 1651.358 1651.307 1651.365 1651.547 1651.793 1652.015 1652.154 1652.097 1651.91 1651.779 1651.772 1651.795 1651.7 1651.521 1651.324 1651.103 1650.927 1650.729 1650.422 1650.123 1649.951 1649.779 1649.607 1649.376 1648.824 1648.2 1647.84 1647.746 1647.786 1647.85 1647.817 1647.703 1647.588 1647.446 1647.141 1646.553 1645.78 1645.132 1644.763 1644.508 1644.251 1644.076 1643.993 1643.789 1643.24 1642.523 1642.014 1641.697 1641.336 1640.912 1640.557 1640.434 1640.487 1640.5 1640.333 1639.889 1639.412 1638.987 1638.366 1637.674 1637.281 1637.096 1636.951 1636.859 1636.822 1636.785 1636.508 1635.999 1635.449 1634.999 1634.812 1634.817 1634.824 1634.82 1634.838 1634.865 1634.862 1634.809 1634.695 1634.548 1634.403 1634.253 1634.095 1633.933 1633.738 1633.464 1633.104 1632.715 1632.354 1631.991 1631.597 1631.194 1630.853 1630.615 1630.365 1630.123 1629.874 1629.599 1629.36 1629.104 1628.788 1628.464 1628.189 1627.993 1627.866 1627.748 1627.554 1627.222 1626.799 1626.365 1625.884 1625.421 1625.052 1624.767 1624.57 1624.424 1624.33 1624.37 1624.466 1624.411 1624.1 1623.607 1623.057 1622.538 1622.163 1621.92 1621.706 1621.483 1621.247 1621.026 1620.834 1620.584 1620.176 1619.626 1619.073 1618.658 1618.387 1618.184 1618.098 1618.075 1618.033 1617.976 1617.875 1617.687 1617.408 1617.082 1616.884 1616.855 1616.84 1616.861 1617.095 1617.52 1617.779 1617.562 1617.043 1616.488 1615.948 1615.554 1615.578 1615.962 1616.39 1616.58 1616.518 1616.336 1616.114 1615.906 1615.644 1615.348 1615.286 1615.334 1615.261 1615.12 1614.949 1614.671 1614.296 1613.921 1613.558 1613.112 1612.527 1611.911 1611.407 1610.968 1610.529 1610.152 1609.852 1609.54 1609.142 1608.689 1608.304 1607.86 1607.088 1606.092 1605.181 1604.475 1603.843 1603.256 1603.072 1603.292 1603.37 1603.311 1603.291 1603.292 1603.272 1603.218 1603.3 1603.578 1603.959 1604.388 1604.722 1604.808 1604.625 1604.24 1604.041 1604.416
1659.279 1658.779 1658.305 1657.991 1657.875 1657.809 1657.613 1657.312 1656.911 1656.331 1655.733 1655.356 1655.172 1655.141 1655.248 1655.29 1655.123 1654.864 1654.705 1654.603 1654.351 1653.849 1653.172 1652.407 1651.695 1651.298 1651.169 1651.127 1651.199 1651.361 1651.564 1651.739 1651.747 1651.631 1651.6 1651.665 1651.632 1651.463 1651.268 1651.067 1650.866 1650.733 1650.584 1650.29 1649.969 1649.737 1649.559 1649.489 1649.362 1648.875 1648.21 1647.647 1647.327 1647.289 1647.383 1647.382 1647.305 1647.21 1647.088 1646.825 1646.189 1645.356 1644.782 1644.489 1644.154 1643.736 1643.43 1643.326 1643.23 1642.831 1642.252 1641.819 1641.515 1641.162 1640.72 1640.224 1639.844 1639.731 1639.722 1639.64 1639.34 1638.886 1638.575 1638.296 1637.838 1637.425 1637.148 1636.952 1636.824 1636.679 1636.49 1636.12 1635.595 1635.098 1634.797 1634.743 1634.769 1634.768 1634.757 1634.716 1634.664 1634.633 1634.593 1634.525 1634.432 1634.326 1634.2 1634.035 1633.824 1633.548 1633.196 1632.797 1632.438 1632.199 1631.978 1631.64 1631.247 1630.91 1630.603 1630.223 1629.875 1629.606 1629.364 1629.146 1628.927 1628.686 1628.452 1628.259 1628.116 1628.029 1627.964 1627.795 1627.427 1626.942 1626.44 1625.864 1625.338 1624.983 1624.734 1624.545 1624.332 1624.138 1624.176 1624.321 1624.294 1624.037 1623.564 1622.966 1622.443 1622.136 1621.968 1621.82 1621.673 1621.504 1621.279 1621.021 1620.717 1620.288 1619.693 1619.037 1618.459 1618.047 1617.84 1617.806 1617.854 1617.939 1618.007 1617.978 1617.799 1617.45 1617.016 1616.681 1616.561 1616.515 1616.527 1616.735 1617.027 1617.075 1616.713 1616.23 1615.874 1615.521 1615.131 1614.933 1615.092 1615.367 1615.477 1615.394 1615.173 1614.928 1614.847 1614.903 1614.874 1614.861 1614.892 1614.83 1614.728 1614.602 1614.315 1613.906 1613.509 1613.139 1612.692 1612.09 1611.454 1610.871 1610.33 1609.886 1609.593 1609.36 1609.126 1608.903 1608.639 1608.37 1608.057 1607.506 1606.704 1605.854 1605.038 1604.184 1603.409 1603.146 1603.416 1603.548 1603.453 1603.354 1603.294 1603.267 1603.239 1603.331 1603.602 1603.942 1604.297 1604.58 1604.685 1604.59 1604.352 1604.286 1604.727
1658.778 1658.358 1658.055 1657.896 1657.792 1657.684 1657.547 1657.317 1656.918 1656.314 1655.728 1655.405 1655.248 1655.208 1655.272 1655.242 1655.096 1654.968 1654.892 1654.767 1654.455 1653.904 1653.214 1652.417 1651.623 1651.181 1651.054 1651.017 1651.035 1651.093 1651.202 1651.326 1651.39 1651.428 1651.518 1651.553 1651.436 1651.258 1651.086 1650.88 1650.624 1650.437 1650.312 1650.063 1649.755 1649.52 1649.398 1649.425 1649.363 1648.966 1648.397 1647.844 1647.396 1647.149 1647.05 1646.978 1646.905 1646.823 1646.729 1646.484 1645.812 1644.957 1644.471 1644.208 1643.827 1643.402 1643.103 1642.982 1642.858 1642.508 1642.055 1641.678 1641.354 1640.995 1640.535 1639.966 1639.433 1639.11 1638.958 1638.872 1638.671 1638.275 1637.957 1637.853 1637.738 1637.474 1637.167 1636.901 1636.672 1636.433 1636.149 1635.724 1635.204 1634.828 1634.715 1634.712 1634.711 1634.744 1634.764 1634.672 1634.532 1634.427 1634.317 1634.21 1634.194 1634.184 1634.1 1633.929 1633.65 1633.292 1632.896 1632.511 1632.223 1632.072 1631.938 1631.67 1631.316 1630.973 1630.585 1630.106 1629.666 1629.36 1629.136 1628.926 1628.723 1628.542 1628.402 1628.292 1628.184 1628.082 1627.995 1627.812 1627.453 1626.968 1626.378 1625.7 1625.17 1624.874 1624.661 1624.453 1624.195 1623.968 1623.97 1624.083 1624.024 1623.789 1623.403 1622.889 1622.434 1622.144 1621.987 1621.875 1621.768 1621.666 1621.492 1621.211 1620.867 1620.419 1619.805 1619.112 1618.43 1617.857 1617.55 1617.496 1617.551 1617.644 1617.734 1617.767 1617.635 1617.295 1616.891 1616.539 1616.318 1616.207 1616.171 1616.247 1616.345 1616.24 1615.866 1615.521 1615.303 1615.026 1614.674 1614.4 1614.342 1614.355 1614.331 1614.224 1613.958 1613.694 1613.699 1613.952 1614.193 1614.299 1614.313 1614.238 1614.117 1614.03 1613.869 1613.521 1613.097 1612.67 1612.174 1611.57 1610.941 1610.329 1609.736 1609.278 1609.034 1608.871 1608.683 1608.525 1608.433 1608.349 1608.155 1607.801 1607.262 1606.587 1605.793 1604.938 1604.135 1603.676 1603.722 1603.746 1603.602 1603.46 1603.361 1603.319 1603.324 1603.438 1603.736 1604.073 1604.296 1604.446 1604.546 1604.58 1604.59 1604.714 1605.117
1658.384 1658.125 1657.931 1657.743 1657.582 1657.539 1657.535 1657.361 1656.96 1656.409 1655.948 1655.718 1655.589 1655.524 1655.501 1655.421 1655.322 1655.272 1655.177 1654.899 1654.458 1653.884 1653.17 1652.27 1651.443 1651.078 1651.025 1651.026 1651.036 1651.054 1651.085 1651.135 1651.216 1651.342 1651.454 1651.413 1651.263 1651.104 1650.931 1650.706 1650.404 1650.125 1649.922 1649.686 1649.412 1649.234 1649.267 1649.402 1649.368 1649.021 1648.526 1648.03 1647.555 1647.143 1646.835 1646.668 1646.585 1646.518 1646.434 1646.181 1645.537 1644.725 1644.23 1643.914 1643.524 1643.165 1642.969 1642.87 1642.676 1642.321 1641.921 1641.553 1641.207 1640.827 1640.325 1639.717 1639.113 1638.677 1638.488 1638.381 1638.204 1637.937 1637.71 1637.663 1637.658 1637.463 1637.151 1636.842 1636.533 1636.232 1635.892 1635.403 1634.915 1634.695 1634.686 1634.681 1634.676 1634.731 1634.715 1634.542 1634.323 1634.104 1633.854 1633.695 1633.757 1633.861 1633.823 1633.656 1633.385 1633.012 1632.603 1632.26 1632.058 1631.957 1631.86 1631.672 1631.366 1631.001 1630.545 1630.046 1629.598 1629.2 1628.916 1628.713 1628.533 1628.4 1628.298 1628.209 1628.098 1627.908 1627.701 1627.445 1627.07 1626.626 1626.078 1625.411 1624.929 1624.701 1624.544 1624.359 1624.123 1623.936 1623.86 1623.841 1623.743 1623.491 1623.147 1622.747 1622.38 1622.119 1621.99 1621.94 1621.843 1621.713 1621.553 1621.266 1620.887 1620.404 1619.751 1619.048 1618.358 1617.731 1617.326 1617.125 1617.02 1617.025 1617.09 1617.17 1617.137 1616.886 1616.54 1616.196 1615.901 1615.735 1615.685 1615.644 1615.548 1615.376 1615.129 1614.929 1614.763 1614.5 1614.16 1613.826 1613.547 1613.399 1613.382 1613.281 1612.984 1612.699 1612.749 1613.157 1613.602 1613.818 1613.78 1613.544 1613.234 1613.068 1613.042 1612.888 1612.56 1612.135 1611.62 1611.041 1610.442 1609.855 1609.281 1608.785 1608.475 1608.309 1608.141 1607.959 1607.919 1608.055 1608.112 1607.971 1607.616 1607.092 1606.416 1605.674 1604.963 1604.4 1604.149 1603.926 1603.666 1603.477 1603.364 1603.329 1603.39 1603.617 1603.985 1604.265 1604.335 1604.322 1604.407 1604.576 1604.81 1605.087 1605.367
1658.058 1657.854 1657.622 1657.37 1657.25 1657.394 1657.544 1657.434 1657.049 1656.566 1656.258 1656.082 1655.924 1655.825 1655.787 1655.739 1655.674 1655.609 1655.404 1654.955 1654.414 1653.814 1653.043 1652.084 1651.32 1651.068 1651.07 1651.086 1651.099 1651.114 1651.129 1651.163 1651.23 1651.318 1651.372 1651.278 1651.113 1650.958 1650.777 1650.522 1650.183 1649.828 1649.504 1649.178 1648.862 1648.731 1648.896 1649.208 1649.297 1648.986 1648.5 1648.016 1647.533 1647.059 1646.657 1646.42 1646.319 1646.26 1646.16 1645.88 1645.327 1644.648 1644.1 1643.679 1643.293 1643.006 1642.88 1642.765 1642.524 1642.226 1641.892 1641.497 1641.084 1640.646 1640.102 1639.508 1638.989 1638.651 1638.508 1638.393 1638.218 1638.003 1637.819 1637.739 1637.636 1637.385 1637.083 1636.792 1636.472 1636.113 1635.664 1635.102 1634.691 1634.606 1634.642 1634.634 1634.605 1634.583 1634.487 1634.253 1633.946 1633.617 1633.316 1633.188 1633.254 1633.34 1633.287 1633.169 1633.014 1632.703 1632.327 1632.058 1631.922 1631.844 1631.765 1631.63 1631.378 1630.998 1630.565 1630.205 1629.784 1629.138 1628.703 1628.523 1628.384 1628.271 1628.146 1628.001 1627.791 1627.476 1627.166 1626.858 1626.479 1626.084 1625.626 1625.064 1624.682 1624.512 1624.398 1624.275 1624.108 1623.937 1623.786 1623.655 1623.506 1623.209 1622.797 1622.458 1622.231 1622.052 1621.964 1621.962 1621.874 1621.697 1621.517 1621.201 1620.78 1620.264 1619.566 1618.848 1618.198 1617.643 1617.224 1616.862 1616.557 1616.391 1616.353 1616.404 1616.43 1616.322 1616.075 1615.712 1615.373 1615.211 1615.174 1615.117 1614.977 1614.804 1614.617 1614.419 1614.235 1613.982 1613.628 1613.251 1612.859 1612.564 1612.495 1612.419 1612.176 1611.974 1612.163 1612.778 1613.368 1613.603 1613.488 1613.114 1612.575 1612.102 1611.953 1611.919 1611.723 1611.421 1611.044 1610.546 1609.989 1609.45 1608.947 1608.473 1608.095 1607.815 1607.549 1607.295 1607.26 1607.566 1607.894 1607.979 1607.758 1607.26 1606.643 1606.022 1605.454 1604.957 1604.545 1604.105 1603.699 1603.462 1603.365 1603.356 1603.505 1603.896 1604.358 1604.585 1604.585 1604.553 1604.616 1604.766 1605.003 1605.292 1605.485
1657.737 1657.431 1657.123 1656.916 1656.993 1657.313 1657.52 1657.453 1657.131 1656.736 1656.471 1656.285 1656.112 1656.008 1656.011 1656.037 1656.028 1655.91 1655.539 1654.969 1654.351 1653.661 1652.906 1652.146 1651.483 1651.171 1651.134 1651.148 1651.166 1651.181 1651.199 1651.208 1651.193 1651.236 1651.265 1651.151 1650.97 1650.805 1650.611 1650.308 1649.929 1649.543 1649.154 1648.731 1648.349 1648.206 1648.363 1648.655 1648.704 1648.375 1647.909 1647.449 1647.026 1646.683 1646.379 1646.132 1646.026 1645.99 1645.861 1645.563 1645.123 1644.575 1644.044 1643.586 1643.189 1642.931 1642.799 1642.635 1642.4 1642.166 1641.892 1641.503 1641.036 1640.517 1639.956 1639.487 1639.147 1638.915 1638.769 1638.616 1638.419 1638.207 1637.997 1637.818 1637.575 1637.259 1636.978 1636.7 1636.323 1635.86 1635.314 1634.786 1634.542 1634.549 1634.578 1634.543 1634.442 1634.299 1634.145 1633.941 1633.637 1633.296 1633.033 1632.921 1632.911 1632.888 1632.792 1632.709 1632.623 1632.359 1632.032 1631.845 1631.755 1631.683 1631.611 1631.505 1631.329 1631.056 1630.718 1630.38 1629.912 1629.179 1628.598 1628.368 1628.253 1628.104 1627.906 1627.681 1627.36 1626.959 1626.588 1626.248 1625.891 1625.527 1625.138 1624.719 1624.441 1624.3 1624.211 1624.144 1624.031 1623.863 1623.689 1623.523 1623.325 1622.991 1622.519 1622.185 1622.032 1621.934 1621.898 1621.907 1621.839 1621.682 1621.462 1621.093 1620.649 1620.126 1619.408 1618.68 1618.143 1617.739 1617.363 1616.98 1616.621 1616.321 1616.111 1616.035 1616.013 1615.947 1615.78 1615.443 1615.096 1614.903 1614.799 1614.717 1614.632 1614.526 1614.353 1614.102 1613.833 1613.537 1613.167 1612.778 1612.421 1612.079 1611.82 1611.613 1611.425 1611.383 1611.736 1612.498 1613.191 1613.467 1613.327 1612.911 1612.323 1611.65 1611.207 1610.974 1610.756 1610.566 1610.356 1610.021 1609.55 1609.041 1608.622 1608.233 1607.841 1607.475 1607.131 1606.859 1606.826 1607.125 1607.468 1607.657 1607.597 1607.172 1606.617 1606.098 1605.581 1605.074 1604.632 1604.184 1603.735 1603.46 1603.371 1603.432 1603.765 1604.328 1604.824 1605.012 1605.003 1605.074 1605.155 1605.181 1605.29 1605.47 1605.573
1657.244 1656.847 1656.594 1656.583 1656.874 1657.268 1657.454 1657.39 1657.115 1656.787 1656.523 1656.335 1656.21 1656.146 1656.175 1656.244 1656.25 1656.052 1655.568 1654.914 1654.178 1653.387 1652.689 1652.218 1651.797 1651.393 1651.23 1651.226 1651.234 1651.246 1651.228 1651.135 1651.049 1651.064 1651.097 1651.04 1650.873 1650.651 1650.36 1649.996 1649.606 1649.248 1648.916 1648.501 1648.055 1647.819 1647.849 1647.899 1647.728 1647.419 1647.114 1646.823 1646.562 1646.36 1646.142 1645.845 1645.612 1645.505 1645.329 1645.075 1644.809 1644.415 1643.948 1643.506 1643.144 1642.911 1642.722 1642.51 1642.274 1642.014 1641.743 1641.446 1641.065 1640.574 1640.061 1639.689 1639.427 1639.231 1639.091 1638.929 1638.72 1638.498 1638.243 1637.956 1637.599 1637.222 1636.903 1636.512 1635.992 1635.437 1634.913 1634.564 1634.484 1634.516 1634.499 1634.397 1634.227 1634.026 1633.834 1633.642 1633.405 1633.142 1632.931 1632.813 1632.745 1632.666 1632.547 1632.406 1632.215 1631.935 1631.673 1631.53 1631.456 1631.392 1631.325 1631.22 1631.1 1630.964 1630.688 1630.293 1629.818 1629.208 1628.655 1628.326 1628.1 1627.855 1627.584 1627.273 1626.927 1626.608 1626.268 1625.874 1625.499 1625.13 1624.743 1624.394 1624.175 1624.077 1624.038 1624.002 1623.903 1623.74 1623.552 1623.35 1623.122 1622.812 1622.426 1622.175 1622.031 1621.896 1621.812 1621.778 1621.707 1621.533 1621.278 1620.965 1620.58 1620.1 1619.468 1618.808 1618.366 1618.053 1617.706 1617.338 1616.978 1616.597 1616.215 1615.969 1615.854 1615.767 1615.632 1615.356 1615.017 1614.744 1614.529 1614.402 1614.375 1614.34 1614.208 1613.996 1613.718 1613.402 1613.045 1612.646 1612.267 1611.897 1611.524 1611.17 1610.905 1610.875 1611.289 1612.078 1612.817 1613.174 1613.052 1612.631 1612.17 1611.613 1610.947 1610.355 1609.944 1609.742 1609.618 1609.405 1609.026 1608.568 1608.211 1607.892 1607.545 1607.179 1606.831 1606.59 1606.545 1606.733 1606.967 1607.146 1607.206 1606.968 1606.517 1606.019 1605.471 1604.913 1604.487 1604.122 1603.734 1603.483 1603.432 1603.657 1604.219 1604.869 1605.297 1605.43 1605.408 1605.484 1605.605 1605.651 1605.668 1605.647 1605.571
1656.6 1656.231 1656.057 1656.212 1656.59 1656.981 1657.217 1657.223 1657.017 1656.757 1656.522 1656.341 1656.268 1656.272 1656.31 1656.302 1656.179 1655.859 1655.317 1654.647 1653.865 1653.067 1652.44 1652.098 1651.91 1651.652 1651.415 1651.337 1651.327 1651.277 1651.116 1650.917 1650.83 1650.839 1650.878 1650.887 1650.781 1650.521 1650.114 1649.668 1649.289 1649.012 1648.77 1648.405 1647.941 1647.616 1647.484 1647.333 1647.109 1646.902 1646.722 1646.552 1646.385 1646.222 1646.004 1645.643 1645.246 1644.921 1644.611 1644.347 1644.087 1643.733 1643.319 1642.945 1642.714 1642.594 1642.47 1642.285 1642.024 1641.723 1641.458 1641.244 1641.006 1640.674 1640.297 1639.989 1639.739 1639.561 1639.445 1639.303 1639.09 1638.81 1638.499 1638.145 1637.712 1637.25 1636.768 1636.198 1635.569 1634.983 1634.573 1634.436 1634.444 1634.454 1634.399 1634.246 1634.039 1633.823 1633.609 1633.4 1633.197 1633.003 1632.828 1632.677 1632.56 1632.449 1632.297 1632.06 1631.736 1631.414 1631.223 1631.142 1631.089 1631.031 1630.952 1630.845 1630.747 1630.649 1630.403 1630.043 1629.671 1629.28 1628.865 1628.423 1627.973 1627.561 1627.243 1626.998 1626.784 1626.6 1626.327 1625.899 1625.441 1625.012 1624.569 1624.181 1623.983 1623.939 1623.94 1623.904 1623.771 1623.579 1623.367 1623.137 1622.902 1622.676 1622.484 1622.359 1622.229 1622.021 1621.795 1621.646 1621.543 1621.364 1621.134 1620.898 1620.551 1620.091 1619.578 1619.089 1618.745 1618.46 1618.122 1617.758 1617.354 1616.834 1616.321 1616.005 1615.831 1615.687 1615.538 1615.311 1614.955 1614.561 1614.244 1614.091 1614.114 1614.155 1614.095 1613.967 1613.709 1613.418 1613.17 1612.774 1612.253 1611.782 1611.369 1610.97 1610.642 1610.553 1610.88 1611.515 1612.131 1612.474 1612.471 1612.204 1611.887 1611.533 1610.907 1610.109 1609.444 1609.122 1608.978 1608.764 1608.426 1608.051 1607.727 1607.411 1607.1 1606.795 1606.513 1606.307 1606.242 1606.339 1606.475 1606.556 1606.602 1606.501 1606.182 1605.76 1605.253 1604.71 1604.315 1604.02 1603.744 1603.547 1603.505 1603.82 1604.465 1605.079 1605.451 1605.567 1605.516 1605.524 1605.649 1605.778 1605.769 1605.642 1605.515
1655.938 1655.695 1655.565 1655.739 1656.127 1656.538 1656.847 1656.934 1656.827 1656.661 1656.48 1656.317 1656.24 1656.212 1656.156 1656.037 1655.804 1655.415 1654.875 1654.238 1653.492 1652.746 1652.202 1651.897 1651.785 1651.706 1651.569 1651.457 1651.36 1651.197 1650.924 1650.664 1650.568 1650.553 1650.535 1650.578 1650.6 1650.378 1649.921 1649.437 1649.082 1648.862 1648.658 1648.34 1647.922 1647.549 1647.267 1647.026 1646.855 1646.729 1646.578 1646.422 1646.266 1646.102 1645.867 1645.482 1645.047 1644.591 1644.056 1643.633 1643.282 1642.82 1642.309 1641.953 1641.799 1641.815 1641.921 1641.9 1641.672 1641.376 1641.14 1640.935 1640.719 1640.555 1640.391 1640.209 1640.038 1639.892 1639.781 1639.633 1639.367 1639.03 1638.689 1638.304 1637.86 1637.327 1636.653 1635.903 1635.206 1634.663 1634.405 1634.384 1634.4 1634.383 1634.298 1634.11 1633.883 1633.663 1633.443 1633.225 1633.031 1632.874 1632.716 1632.525 1632.343 1632.153 1631.879 1631.566 1631.248 1630.922 1630.712 1630.689 1630.713 1630.657 1630.543 1630.417 1630.305 1630.194 1630.003 1629.756 1629.506 1629.24 1628.905 1628.429 1627.805 1627.251 1626.997 1626.959 1626.899 1626.78 1626.549 1626.104 1625.586 1625.132 1624.682 1624.277 1624.067 1623.99 1623.933 1623.848 1623.684 1623.474 1623.263 1623.053 1622.849 1622.692 1622.62 1622.579 1622.453 1622.186 1621.855 1621.6 1621.441 1621.298 1621.122 1620.897 1620.547 1620.1 1619.665 1619.313 1619.061 1618.833 1618.564 1618.233 1617.777 1617.122 1616.51 1616.178 1615.986 1615.802 1615.59 1615.263 1614.799 1614.284 1613.863 1613.708 1613.809 1613.928 1613.885 1613.756 1613.588 1613.478 1613.373 1612.954 1612.266 1611.639 1611.182 1610.789 1610.481 1610.386 1610.541 1610.909 1611.289 1611.496 1611.543 1611.43 1611.293 1611.169 1610.719 1609.987 1609.29 1608.812 1608.535 1608.256 1607.892 1607.53 1607.214 1606.917 1606.668 1606.483 1606.307 1606.128 1606.049 1606.097 1606.118 1606.022 1605.93 1605.867 1605.711 1605.424 1604.989 1604.491 1604.139 1603.918 1603.744 1603.581 1603.513 1603.781 1604.347 1604.871 1605.223 1605.374 1605.339 1605.326 1605.392 1605.463 1605.427 1605.281 1605.169
1655.295 1655.147 1655.178 1655.395 1655.75 1656.16 1656.483 1656.592 1656.525 1656.399 1656.262 1656.133 1656.034 1655.926 1655.725 1655.444 1655.144 1654.812 1654.354 1653.768 1653.105 1652.474 1652 1651.695 1651.576 1651.552 1651.503 1651.39 1651.224 1651.023 1650.762 1650.471 1650.248 1650.097 1650.042 1650.152 1650.281 1650.149 1649.743 1649.291 1648.962 1648.746 1648.549 1648.262 1647.857 1647.426 1647.057 1646.799 1646.644 1646.554 1646.45 1646.304 1646.149 1645.976 1645.718 1645.325 1644.926 1644.482 1643.768 1643.087 1642.594 1641.906 1641.082 1640.699 1640.783 1641.037 1641.316 1641.434 1641.29 1641.01 1640.698 1640.357 1640.141 1640.235 1640.324 1640.228 1640.119 1640.056 1639.977 1639.797 1639.482 1639.08 1638.651 1638.284 1637.921 1637.321 1636.469 1635.617 1634.932 1634.484 1634.338 1634.342 1634.338 1634.308 1634.219 1634.029 1633.773 1633.521 1633.293 1633.077 1632.891 1632.75 1632.61 1632.401 1632.106 1631.744 1631.325 1630.951 1630.623 1630.258 1630.033 1630.098 1630.208 1630.161 1630.023 1629.888 1629.815 1629.776 1629.67 1629.523 1629.344 1629.104 1628.782 1628.288 1627.57 1626.919 1626.66 1626.76 1626.888 1626.869 1626.672 1626.262 1625.768 1625.331 1624.891 1624.419 1624.031 1623.799 1623.704 1623.725 1623.71 1623.556 1623.309 1623.055 1622.825 1622.656 1622.646 1622.715 1622.636 1622.326 1621.94 1621.635 1621.408 1621.243 1621.084 1620.884 1620.586 1620.187 1619.791 1619.493 1619.282 1619.117 1618.949 1618.676 1618.193 1617.462 1616.779 1616.424 1616.229 1615.994 1615.634 1615.136 1614.574 1613.963 1613.44 1613.326 1613.5 1613.623 1613.544 1613.416 1613.447 1613.585 1613.564 1613.085 1612.29 1611.532 1610.986 1610.598 1610.31 1610.132 1610.064 1610.216 1610.444 1610.575 1610.521 1610.326 1610.335 1610.528 1610.386 1609.897 1609.289 1608.683 1608.255 1607.883 1607.462 1607.093 1606.812 1606.562 1606.378 1606.306 1606.224 1606.079 1605.99 1605.998 1605.94 1605.725 1605.51 1605.41 1605.319 1605.111 1604.687 1604.173 1603.882 1603.742 1603.621 1603.507 1603.449 1603.621 1604.02 1604.427 1604.704 1604.878 1604.989 1604.985 1604.919 1604.87 1604.786 1604.655 1604.556
1654.936 1654.806 1654.976 1655.226 1655.483 1655.833 1656.141 1656.248 1656.18 1656.051 1655.93 1655.822 1655.721 1655.587 1655.307 1654.899 1654.569 1654.319 1653.959 1653.447 1652.883 1652.356 1651.89 1651.533 1651.381 1651.35 1651.29 1651.16 1651 1650.818 1650.572 1650.268 1649.96 1649.704 1649.612 1649.707 1649.8 1649.754 1649.549 1649.201 1648.873 1648.623 1648.357 1648.01 1647.592 1647.15 1646.786 1646.557 1646.402 1646.321 1646.268 1646.17 1646.031 1645.846 1645.559 1645.204 1644.908 1644.471 1643.647 1642.748 1641.985 1641.077 1640.183 1639.88 1640.107 1640.457 1640.734 1640.867 1640.765 1640.441 1639.981 1639.562 1639.525 1639.901 1640.196 1640.194 1640.103 1640.043 1639.937 1639.699 1639.359 1638.871 1638.363 1638.037 1637.681 1636.972 1636.026 1635.153 1634.581 1634.327 1634.28 1634.279 1634.252 1634.212 1634.145 1634 1633.746 1633.457 1633.183 1632.94 1632.753 1632.602 1632.443 1632.188 1631.761 1631.236 1630.72 1630.285 1629.926 1629.536 1629.311 1629.436 1629.594 1629.586 1629.457 1629.317 1629.313 1629.384 1629.353 1629.252 1629.127 1628.966 1628.688 1628.178 1627.501 1626.839 1626.452 1626.547 1626.776 1626.784 1626.608 1626.3 1625.911 1625.517 1625.058 1624.491 1623.917 1623.476 1623.314 1623.47 1623.655 1623.629 1623.388 1623.006 1622.653 1622.469 1622.483 1622.57 1622.539 1622.331 1622.014 1621.691 1621.391 1621.146 1620.968 1620.831 1620.641 1620.306 1619.929 1619.642 1619.441 1619.333 1619.242 1619.008 1618.532 1617.792 1617.06 1616.665 1616.409 1616.026 1615.516 1614.94 1614.374 1613.808 1613.262 1613.033 1613.112 1613.169 1613.087 1613.013 1613.151 1613.408 1613.412 1612.937 1612.196 1611.439 1610.799 1610.347 1609.984 1609.63 1609.39 1609.455 1609.707 1609.822 1609.585 1609.251 1609.338 1609.743 1609.833 1609.568 1609.174 1608.621 1608.088 1607.605 1607.127 1606.788 1606.566 1606.346 1606.172 1606.146 1606.128 1606.017 1605.937 1605.913 1605.8 1605.564 1605.311 1605.12 1604.98 1604.831 1604.51 1604.043 1603.726 1603.538 1603.404 1603.286 1603.171 1603.25 1603.558 1603.884 1604.063 1604.179 1604.311 1604.328 1604.249 1604.201 1604.111 1603.98 1603.888
1654.893 1654.729 1654.917 1655.164 1655.342 1655.552 1655.788 1655.904 1655.851 1655.716 1655.592 1655.49 1655.394 1655.27 1655.036 1654.688 1654.348 1654.081 1653.801 1653.412 1652.937 1652.454 1651.979 1651.573 1651.343 1651.215 1651.072 1650.916 1650.78 1650.618 1650.373 1650.079 1649.77 1649.473 1649.3 1649.304 1649.383 1649.456 1649.431 1649.159 1648.775 1648.406 1648.012 1647.593 1647.191 1646.796 1646.477 1646.292 1646.162 1646.074 1646.031 1645.984 1645.895 1645.719 1645.431 1645.176 1644.995 1644.507 1643.596 1642.582 1641.624 1640.669 1639.92 1639.651 1639.736 1639.953 1640.141 1640.207 1640.063 1639.703 1639.225 1638.9 1639.064 1639.569 1639.962 1640.082 1640.051 1639.924 1639.647 1639.252 1638.848 1638.425 1638.061 1637.764 1637.267 1636.457 1635.518 1634.7 1634.29 1634.223 1634.234 1634.215 1634.16 1634.104 1634.048 1633.954 1633.756 1633.471 1633.13 1632.722 1632.354 1632.141 1632.01 1631.797 1631.359 1630.772 1630.183 1629.667 1629.296 1628.995 1628.768 1628.807 1628.931 1628.976 1628.925 1628.808 1628.819 1628.943 1628.987 1628.922 1628.829 1628.77 1628.616 1628.184 1627.59 1626.972 1626.502 1626.457 1626.582 1626.545 1626.42 1626.2 1625.901 1625.575 1625.13 1624.57 1623.957 1623.355 1622.988 1623.028 1623.251 1623.372 1623.221 1622.793 1622.396 1622.233 1622.191 1622.126 1622.06 1621.992 1621.851 1621.601 1621.281 1621.006 1620.829 1620.742 1620.634 1620.369 1620.025 1619.76 1619.594 1619.508 1619.405 1619.165 1618.749 1618.098 1617.346 1616.829 1616.41 1615.888 1615.316 1614.755 1614.284 1613.878 1613.405 1612.962 1612.709 1612.609 1612.572 1612.576 1612.713 1612.94 1612.95 1612.53 1611.864 1611.169 1610.518 1609.983 1609.526 1609.077 1608.806 1608.899 1609.135 1609.14 1608.963 1608.851 1608.949 1609.14 1609.2 1609.147 1609.026 1608.66 1608.085 1607.449 1606.881 1606.546 1606.35 1606.162 1606.016 1605.978 1605.973 1605.913 1605.865 1605.834 1605.676 1605.389 1605.087 1604.852 1604.718 1604.631 1604.438 1604.084 1603.726 1603.415 1603.125 1602.83 1602.621 1602.715 1603.02 1603.276 1603.396 1603.48 1603.525 1603.424 1603.398 1603.466 1603.389 1603.268 1603.211
1655.093 1654.807 1654.904 1655.098 1655.214 1655.265 1655.371 1655.527 1655.535 1655.392 1655.26 1655.164 1655.062 1654.911 1654.707 1654.459 1654.194 1653.993 1653.842 1653.568 1653.132 1652.655 1652.186 1651.763 1651.441 1651.132 1650.803 1650.555 1650.419 1650.296 1650.137 1649.917 1649.613 1649.269 1649.02 1649.015 1649.156 1649.294 1649.272 1648.951 1648.477 1648.001 1647.553 1647.129 1646.751 1646.413 1646.15 1646 1645.895 1645.812 1645.767 1645.74 1645.7 1645.568 1645.338 1645.206 1645.053 1644.486 1643.536 1642.503 1641.51 1640.638 1640.079 1639.84 1639.729 1639.612 1639.519 1639.479 1639.307 1638.939 1638.556 1638.409 1638.652 1639.157 1639.604 1639.806 1639.845 1639.742 1639.436 1639.007 1638.588 1638.244 1637.957 1637.554 1636.82 1635.875 1634.984 1634.365 1634.162 1634.179 1634.188 1634.148 1634.068 1633.993 1633.936 1633.872 1633.742 1633.463 1632.96 1632.27 1631.706 1631.462 1631.361 1631.241 1630.955 1630.427 1629.81 1629.26 1628.896 1628.682 1628.479 1628.387 1628.405 1628.43 1628.423 1628.372 1628.387 1628.485 1628.507 1628.451 1628.413 1628.417 1628.355 1628.071 1627.597 1627.064 1626.593 1626.368 1626.31 1626.209 1626.122 1625.976 1625.753 1625.515 1625.162 1624.668 1624.047 1623.324 1622.779 1622.671 1622.804 1622.899 1622.763 1622.358 1621.976 1621.822 1621.747 1621.611 1621.532 1621.512 1621.472 1621.34 1621.056 1620.796 1620.693 1620.66 1620.552 1620.319 1620.037 1619.798 1619.617 1619.474 1619.282 1618.993 1618.58 1618.01 1617.396 1616.838 1616.273 1615.69 1615.141 1614.675 1614.317 1614.032 1613.724 1613.337 1612.902 1612.542 1612.311 1612.18 1612.161 1612.203 1612.244 1612.037 1611.494 1610.844 1610.212 1609.614 1609.083 1608.625 1608.384 1608.497 1608.718 1608.825 1608.905 1608.97 1608.938 1608.845 1608.805 1608.855 1608.869 1608.613 1608.042 1607.35 1606.731 1606.341 1606.124 1605.961 1605.836 1605.778 1605.805 1605.846 1605.817 1605.712 1605.476 1605.119 1604.757 1604.536 1604.487 1604.464 1604.341 1604.058 1603.718 1603.351 1602.906 1602.484 1602.216 1602.242 1602.471 1602.671 1602.824 1602.938 1602.884 1602.659 1602.576 1602.642 1602.573 1602.492 1602.468
1655.359 1654.947 1654.88 1654.979 1655.034 1655.004 1655.002 1655.132 1655.179 1655.057 1654.937 1654.838 1654.695 1654.503 1654.29 1654.1 1653.973 1653.938 1653.967 1653.818 1653.408 1652.912 1652.423 1651.938 1651.452 1650.943 1650.453 1650.082 1649.847 1649.689 1649.672 1649.63 1649.364 1648.961 1648.615 1648.566 1648.758 1648.968 1648.99 1648.662 1648.133 1647.603 1647.121 1646.694 1646.367 1646.138 1645.953 1645.801 1645.706 1645.672 1645.668 1645.661 1645.61 1645.445 1645.209 1645.005 1644.724 1644.189 1643.374 1642.424 1641.522 1640.837 1640.443 1640.216 1639.97 1639.612 1639.242 1638.966 1638.727 1638.39 1638.075 1638.031 1638.233 1638.612 1639.07 1639.392 1639.548 1639.588 1639.43 1639.095 1638.724 1638.355 1637.832 1637.059 1636.098 1635.163 1634.484 1634.158 1634.115 1634.144 1634.127 1634.075 1633.987 1633.891 1633.814 1633.757 1633.66 1633.361 1632.736 1631.922 1631.258 1630.958 1630.833 1630.727 1630.552 1630.155 1629.633 1629.154 1628.798 1628.561 1628.347 1628.167 1628.077 1628.048 1628.058 1628.081 1628.113 1628.129 1628.053 1627.959 1627.946 1627.954 1627.894 1627.707 1627.369 1626.923 1626.498 1626.247 1626.107 1625.958 1625.857 1625.728 1625.569 1625.441 1625.199 1624.76 1624.091 1623.275 1622.639 1622.466 1622.516 1622.463 1622.201 1621.798 1621.452 1621.281 1621.206 1621.143 1621.137 1621.164 1621.178 1621.114 1620.861 1620.615 1620.562 1620.524 1620.363 1620.112 1619.846 1619.621 1619.426 1619.195 1618.884 1618.513 1618.109 1617.711 1617.327 1616.838 1616.228 1615.63 1615.138 1614.745 1614.457 1614.304 1614.17 1613.921 1613.514 1613.03 1612.552 1612.096 1611.692 1611.394 1611.338 1611.325 1611.035 1610.531 1609.936 1609.313 1608.752 1608.28 1607.996 1607.99 1608.133 1608.42 1608.73 1608.795 1608.674 1608.536 1608.456 1608.459 1608.487 1608.379 1607.969 1607.313 1606.636 1606.147 1605.901 1605.775 1605.648 1605.545 1605.605 1605.724 1605.701 1605.54 1605.238 1604.822 1604.41 1604.181 1604.195 1604.243 1604.191 1603.986 1603.674 1603.315 1602.874 1602.457 1602.13 1601.98 1602.056 1602.233 1602.436 1602.534 1602.381 1602.124 1601.95 1601.87 1601.799 1601.76 1601.744
