1569.418 1569.315 1569.031 1568.668 1568.274 1567.773 1567.228 1566.709 1566.224 1565.863 1565.59 1565.302 1565.068 1564.811 1564.383 1563.837 1563.301 1562.846 1562.557 1562.602 1562.806 1562.794 1562.523 1562.212 1561.988 1561.847 1561.742 1561.524 1561.146 1560.672 1560.228 1559.937 1559.905 1560.272 1560.773 1561.01 1560.927 1560.769 1560.809 1561.111 1561.593 1561.969 1562.075 1562.193 1562.593 1562.982 1563.048 1562.903 1562.692 1562.511 1562.385 1562.291 1562.22 1562.17 1562.123 1562.017 1561.836 1561.645 1561.548 1561.673 1561.969 1562.31 1562.571 1562.623 1562.603 1562.68 1562.811 1562.919 1562.945 1562.845 1562.684 1562.51 1562.119 1561.192 1560.017 1559.248 1559.009 1558.955 1558.901 1558.808 1558.655 1558.478 1558.271 1558.015 1557.669 1557.28 1556.971 1556.786 1556.703 1556.614 1556.5 1556.376 1556.242 1556.19 1556.177 1555.963 1555.367 1554.495 1553.595 1552.806 1552.162 1551.735 1551.493 1551.47 1551.62 1551.771 1551.835 1551.709 1551.209 1550.476 1549.876 1549.492 1549.174 1549.009 1548.999 1548.834 1548.482 1548.151 1547.914 1547.648 1547.383 1547.363 1547.68 1548.307 1549.018 1549.564 1549.816 1549.737 1549.535 1549.249 1548.803 1548.404 1548.03 1547.613 1547.256 1546.958 1546.661 1546.349 1546.033 1545.765 1545.619 1545.529 1545.315 1544.898 1544.479 1544.209 1543.926 1543.521 1542.96 1542.294 1541.754 1541.461 1541.221 1540.828 1540.306 1539.612 1538.579 1537.291 1536.052 1535.004 1534.101 1533.254 1532.444 1531.713 1531.096 1530.562 1530.038 1529.475 1528.898 1528.476 1528.187 1527.793 1527.172 1526.467 1525.805 1525.23 1524.875 1524.767 1524.761 1524.755 1524.738 1524.684 1524.545 1524.294 1523.885 1523.296 1522.62 1521.953 1521.32 1520.734 1520.188 1519.688 1519.174 1518.545 1517.829 1517.244 1516.878 1516.578 1516.24 1515.878 1515.402 1514.624 1513.597 1512.595 1511.875 1511.485 1511.503 1511.814 1511.893 1511.758 1511.628 1511.489 1511.317 1511.109 1510.918 1510.787 1510.612 1510.412 1510.347 1510.52 1511.062 1511.906 1512.625 1512.846 1512.832 1512.935 1512.987 1512.728 1512.274 1511.803 1511.423 1511.225 1511.091 1510.905 1510.649 1510.255 1509.797 1509.406 1509.147 1509.102 1509.284 1509.43 1509.391 1509.293 1509.207 1509.134 1508.996 1508.798 1508.796 1509.053 1509.438 1509.86 1510.268 1510.645 1511.03 1511.428 1511.84 1512.333 1512.82 1513.065 1513.158 1513.246 1513.328 1513.407 1513.492 1513.591 1513.687 1513.729 1513.704 1513.686 1513.609 1513.384 1513.26 1513.393 1513.682 1514.093 1514.734 1515.518 1516.147 1516.369 1516.087 1515.553 1515.005 1514.499 1514.073 1513.728 1513.536 1513.574 1513.688 1513.648 1513.354 1513.008 1512.93 1513.123 1513.336 1513.517 1513.74 1514.085 1514.569 1515.08 1515.531 1515.838 1516.037 1516.289 1516.593 1516.897 1517.187 1517.426 1517.567 1517.64 1517.719 1517.828 1517.91 1517.982 1518.066 1517.964 1517.676 1517.264 1516.641 1515.976 1515.417 1514.913 1514.452 1514.026 1513.722 1513.617 1513.637 1513.712 1513.736 1513.719 1513.827 1513.988 1514.104 1514.158 1514.167
1568.917 1568.816 1568.589 1568.251 1567.817 1567.34 1566.87 1566.405 1565.943 1565.514 1565.091 1564.733 1564.57 1564.461 1564.195 1563.756 1563.296 1562.859 1562.412 1562.188 1562.258 1562.232 1561.911 1561.509 1561.238 1561.161 1561.166 1561.06 1560.778 1560.323 1559.785 1559.357 1559.264 1559.633 1560.131 1560.358 1560.41 1560.414 1560.476 1560.729 1561.257 1561.759 1561.897 1561.953 1562.272 1562.647 1562.736 1562.53 1562.185 1561.921 1561.768 1561.649 1561.547 1561.462 1561.373 1561.228 1561.049 1560.891 1560.845 1561.044 1561.386 1561.71 1561.917 1561.934 1561.887 1561.961 1562.115 1562.26 1562.342 1562.297 1562.165 1562.007 1561.653 1560.766 1559.555 1558.669 1558.37 1558.31 1558.215 1558.058 1557.859 1557.656 1557.523 1557.497 1557.361 1557.047 1556.767 1556.608 1556.503 1556.365 1556.18 1555.969 1555.778 1555.691 1555.665 1555.441 1554.805 1553.945 1553.068 1552.219 1551.519 1551.079 1550.907 1551.034 1551.331 1551.587 1551.687 1551.578 1551.131 1550.442 1549.805 1549.279 1548.866 1548.709 1548.58 1548.26 1547.851 1547.44 1547.081 1546.781 1546.527 1546.504 1546.825 1547.426 1548.136 1548.711 1549.035 1549.063 1548.92 1548.67 1548.291 1547.954 1547.612 1547.118 1546.584 1546.173 1545.832 1545.44 1544.945 1544.47 1544.234 1544.214 1544.161 1544.021 1543.938 1543.82 1543.544 1543.165 1542.682 1542.094 1541.545 1541.151 1540.854 1540.487 1540.01 1539.419 1538.626 1537.589 1536.413 1535.254 1534.229 1533.377 1532.598 1531.848 1531.184 1530.633 1530.079 1529.373 1528.574 1527.925 1527.474 1526.992 1526.384 1525.756 1525.18 1524.669 1524.276 1524.081 1524.062 1524.124 1524.159 1524.106 1523.944 1523.712 1523.39 1522.901 1522.304 1521.683 1521.039 1520.424 1519.877 1519.386 1518.836 1518.179 1517.483 1516.86 1516.427 1516.074 1515.674 1515.258 1514.796 1514.145 1513.283 1512.346 1511.584 1511.07 1510.912 1511.143 1511.237 1511.106 1510.946 1510.768 1510.567 1510.355 1510.173 1510.026 1509.862 1509.678 1509.568 1509.695 1510.129 1510.85 1511.656 1512.113 1512.365 1512.631 1512.765 1512.601 1512.196 1511.698 1511.256 1510.971 1510.773 1510.616 1510.383 1509.946 1509.381 1508.849 1508.512 1508.528 1508.776 1508.955 1508.959 1508.852 1508.746 1508.724 1508.672 1508.581 1508.614 1508.798 1509.084 1509.424 1509.722 1509.988 1510.321 1510.687 1511.111 1511.689 1512.248 1512.519 1512.668 1512.87 1513.03 1513.079 1513.073 1513.089 1513.122 1513.083 1512.98 1512.931 1512.847 1512.602 1512.477 1512.682 1513.062 1513.476 1514.022 1514.796 1515.518 1515.757 1515.39 1514.785 1514.19 1513.654 1513.256 1512.987 1512.869 1512.927 1513.031 1513.026 1512.797 1512.432 1512.337 1512.63 1512.955 1513.164 1513.342 1513.634 1514.148 1514.739 1515.198 1515.454 1515.613 1515.788 1516.029 1516.329 1516.63 1516.923 1517.23 1517.483 1517.631 1517.703 1517.748 1517.792 1517.778 1517.585 1517.233 1516.722 1516.105 1515.548 1515.077 1514.608 1514.109 1513.636 1513.322 1513.267 1513.377 1513.531 1513.665 1513.775 1513.899 1514.029 1514.143 1514.255 1514.335
1568.394 1568.263 1568.082 1567.76 1567.324 1566.903 1566.506 1566.062 1565.575 1565.086 1564.585 1564.193 1564.048 1564.019 1563.885 1563.644 1563.369 1562.984 1562.466 1561.99 1561.779 1561.655 1561.283 1560.833 1560.592 1560.575 1560.638 1560.611 1560.404 1559.994 1559.44 1558.926 1558.769 1559.137 1559.656 1559.961 1560.147 1560.196 1560.137 1560.258 1560.86 1561.556 1561.764 1561.763 1561.98 1562.301 1562.375 1562.114 1561.669 1561.317 1561.125 1561.003 1560.915 1560.836 1560.734 1560.55 1560.328 1560.163 1560.161 1560.454 1560.887 1561.186 1561.29 1561.223 1561.133 1561.198 1561.353 1561.503 1561.618 1561.643 1561.579 1561.441 1561.041 1560.123 1558.896 1557.947 1557.61 1557.533 1557.404 1557.219 1556.978 1556.771 1556.781 1556.945 1556.945 1556.691 1556.433 1556.291 1556.172 1555.989 1555.732 1555.459 1555.272 1555.231 1555.234 1555.027 1554.388 1553.526 1552.648 1551.747 1550.921 1550.425 1550.395 1550.654 1550.99 1551.282 1551.428 1551.39 1551.056 1550.424 1549.684 1548.99 1548.533 1548.304 1548.037 1547.653 1547.235 1546.85 1546.568 1546.338 1546.079 1545.908 1546.013 1546.436 1547.003 1547.499 1547.904 1548.151 1548.126 1547.903 1547.63 1547.395 1547.13 1546.686 1546.114 1545.642 1545.221 1544.724 1544.138 1543.52 1543.051 1542.936 1543.024 1543.11 1543.266 1543.365 1543.172 1542.79 1542.359 1541.844 1541.244 1540.729 1540.454 1540.192 1539.734 1539.156 1538.497 1537.605 1536.5 1535.385 1534.411 1533.606 1532.868 1532.13 1531.424 1530.792 1530.11 1529.285 1528.417 1527.619 1526.947 1526.327 1525.717 1525.115 1524.502 1524.009 1523.738 1523.579 1523.473 1523.426 1523.4 1523.354 1523.216 1523.017 1522.807 1522.478 1521.979 1521.396 1520.768 1520.118 1519.495 1518.916 1518.28 1517.595 1516.942 1516.346 1515.866 1515.446 1515.018 1514.589 1514.129 1513.562 1512.839 1512.067 1511.45 1510.988 1510.688 1510.629 1510.573 1510.407 1510.209 1510.002 1509.788 1509.583 1509.409 1509.251 1509.09 1508.921 1508.804 1508.916 1509.315 1509.957 1510.791 1511.474 1511.958 1512.364 1512.572 1512.492 1512.175 1511.727 1511.315 1511.003 1510.681 1510.401 1510.195 1509.879 1509.375 1508.763 1508.19 1508.014 1508.201 1508.411 1508.45 1508.316 1508.232 1508.297 1508.369 1508.417 1508.517 1508.681 1508.904 1509.12 1509.254 1509.414 1509.702 1510.028 1510.41 1510.962 1511.577 1511.987 1512.268 1512.565 1512.753 1512.738 1512.648 1512.574 1512.526 1512.455 1512.331 1512.221 1512.117 1511.924 1511.839 1512.066 1512.416 1512.815 1513.44 1514.276 1514.988 1515.152 1514.702 1514.034 1513.405 1512.862 1512.482 1512.253 1512.144 1512.231 1512.401 1512.466 1512.301 1511.95 1511.837 1512.135 1512.526 1512.804 1513.006 1513.29 1513.795 1514.372 1514.825 1515.067 1515.134 1515.195 1515.387 1515.697 1516.057 1516.464 1516.972 1517.437 1517.62 1517.616 1517.613 1517.635 1517.554 1517.295 1516.911 1516.357 1515.703 1515.132 1514.654 1514.189 1513.736 1513.377 1513.175 1513.158 1513.266 1513.408 1513.586 1513.792 1513.945 1514.037 1514.134 1514.278 1514.388
1567.856 1567.661 1567.506 1567.225 1566.836 1566.479 1566.115 1565.654 1565.122 1564.592 1564.086 1563.68 1563.508 1563.573 1563.577 1563.511 1563.391 1563.071 1562.603 1562.052 1561.588 1561.242 1560.812 1560.379 1560.154 1560.121 1560.17 1560.194 1560.059 1559.688 1559.137 1558.595 1558.387 1558.706 1559.229 1559.583 1559.721 1559.723 1559.69 1559.83 1560.529 1561.373 1561.643 1561.588 1561.669 1561.905 1561.94 1561.646 1561.178 1560.765 1560.502 1560.364 1560.291 1560.234 1560.141 1559.9 1559.59 1559.4 1559.49 1559.898 1560.377 1560.598 1560.59 1560.439 1560.264 1560.318 1560.477 1560.572 1560.663 1560.782 1560.828 1560.684 1560.214 1559.319 1558.132 1557.165 1556.819 1556.745 1556.633 1556.45 1556.166 1556.028 1556.209 1556.456 1556.493 1556.279 1556.051 1555.913 1555.763 1555.521 1555.22 1554.934 1554.777 1554.833 1554.922 1554.734 1554.12 1553.286 1552.413 1551.464 1550.52 1549.959 1549.958 1550.246 1550.571 1550.84 1551 1551.008 1550.777 1550.273 1549.539 1548.685 1548.106 1547.782 1547.441 1547.048 1546.683 1546.436 1546.293 1546.13 1545.874 1545.596 1545.439 1545.538 1545.895 1546.279 1546.636 1547.044 1547.238 1547.147 1546.964 1546.777 1546.572 1546.24 1545.739 1545.229 1544.708 1544.141 1543.539 1542.848 1542.149 1541.763 1541.837 1542.043 1542.263 1542.514 1542.569 1542.411 1542.172 1541.719 1540.951 1540.255 1539.947 1539.794 1539.465 1538.988 1538.399 1537.512 1536.487 1535.53 1534.666 1533.898 1533.173 1532.442 1531.687 1530.934 1530.157 1529.327 1528.458 1527.558 1526.708 1525.989 1525.35 1524.713 1524.077 1523.6 1523.377 1523.197 1523.01 1522.867 1522.736 1522.582 1522.399 1522.224 1522.098 1521.937 1521.58 1521.073 1520.457 1519.703 1518.961 1518.303 1517.614 1516.905 1516.26 1515.682 1515.182 1514.738 1514.306 1513.872 1513.421 1512.938 1512.404 1511.835 1511.322 1510.861 1510.505 1510.356 1510.251 1510.064 1509.841 1509.605 1509.319 1508.988 1508.726 1508.544 1508.385 1508.239 1508.14 1508.183 1508.472 1509.114 1510.128 1511.072 1511.727 1512.161 1512.35 1512.285 1512.076 1511.788 1511.451 1511.075 1510.629 1510.22 1509.963 1509.697 1509.277 1508.701 1508.064 1507.716 1507.753 1507.967 1508.066 1507.94 1507.911 1508.046 1508.186 1508.317 1508.443 1508.567 1508.709 1508.826 1508.878 1508.94 1509.11 1509.366 1509.695 1510.213 1510.934 1511.527 1511.91 1512.213 1512.36 1512.333 1512.265 1512.163 1512.039 1511.93 1511.817 1511.684 1511.563 1511.41 1511.261 1511.368 1511.677 1512.153 1512.922 1513.82 1514.479 1514.552 1514.077 1513.375 1512.673 1512.107 1511.74 1511.538 1511.447 1511.561 1511.801 1511.927 1511.785 1511.492 1511.4 1511.698 1512.14 1512.506 1512.778 1513.083 1513.528 1514.001 1514.425 1514.691 1514.714 1514.725 1514.855 1515.079 1515.462 1516.037 1516.675 1517.157 1517.34 1517.353 1517.324 1517.29 1517.275 1517.108 1516.762 1516.23 1515.512 1514.811 1514.242 1513.786 1513.438 1513.19 1513.055 1513.054 1513.17 1513.338 1513.539 1513.753 1513.902 1514.002 1514.145 1514.313 1514.389
1567.353 1567.064 1566.906 1566.719 1566.462 1566.163 1565.793 1565.292 1564.677 1564.095 1563.611 1563.205 1563.013 1563.174 1563.326 1563.379 1563.355 1563.15 1562.781 1562.266 1561.744 1561.238 1560.678 1560.162 1559.852 1559.804 1559.884 1559.925 1559.802 1559.439 1558.91 1558.364 1558.063 1558.255 1558.751 1559.112 1559.207 1559.2 1559.232 1559.496 1560.277 1561.169 1561.448 1561.286 1561.238 1561.46 1561.533 1561.273 1560.795 1560.305 1559.96 1559.766 1559.686 1559.663 1559.568 1559.286 1558.939 1558.738 1558.922 1559.408 1559.801 1559.88 1559.805 1559.623 1559.373 1559.388 1559.532 1559.592 1559.624 1559.683 1559.731 1559.617 1559.206 1558.432 1557.362 1556.48 1556.158 1556.086 1555.999 1555.812 1555.466 1555.328 1555.601 1555.9 1555.964 1555.805 1555.637 1555.516 1555.334 1555.069 1554.77 1554.469 1554.291 1554.362 1554.477 1554.339 1553.811 1553.044 1552.211 1551.316 1550.424 1549.789 1549.605 1549.766 1550.023 1550.256 1550.431 1550.497 1550.396 1550.044 1549.355 1548.407 1547.641 1547.206 1546.857 1546.541 1546.324 1546.202 1546.113 1545.96 1545.707 1545.416 1545.152 1544.989 1545.051 1545.268 1545.494 1545.833 1546.149 1546.215 1546.099 1545.944 1545.801 1545.631 1545.344 1544.88 1544.289 1543.669 1543.009 1542.295 1541.6 1541.117 1540.98 1540.996 1541.151 1541.421 1541.6 1541.62 1541.543 1541.19 1540.454 1539.809 1539.47 1539.299 1539.115 1538.846 1538.375 1537.577 1536.673 1535.813 1534.981 1534.21 1533.462 1532.679 1531.885 1531.055 1530.209 1529.424 1528.578 1527.637 1526.749 1526.012 1525.336 1524.653 1524.023 1523.53 1523.205 1522.91 1522.626 1522.39 1522.102 1521.758 1521.458 1521.292 1521.286 1521.28 1521.056 1520.624 1519.981 1519.07 1518.122 1517.345 1516.695 1516.094 1515.522 1514.964 1514.453 1514.007 1513.58 1513.144 1512.718 1512.337 1511.972 1511.564 1511.111 1510.639 1510.312 1510.214 1510.161 1510.007 1509.766 1509.494 1509.107 1508.579 1508.213 1508.053 1507.938 1507.831 1507.752 1507.719 1507.859 1508.494 1509.684 1510.806 1511.503 1511.85 1511.956 1511.921 1511.86 1511.708 1511.409 1510.988 1510.46 1509.984 1509.666 1509.341 1508.897 1508.367 1507.795 1507.386 1507.384 1507.684 1507.916 1507.885 1507.845 1507.915 1508.041 1508.175 1508.251 1508.34 1508.43 1508.488 1508.514 1508.506 1508.569 1508.733 1509.012 1509.579 1510.376 1511.046 1511.493 1511.789 1511.893 1511.891 1511.875 1511.786 1511.645 1511.515 1511.406 1511.274 1511.126 1510.97 1510.774 1510.7 1510.937 1511.562 1512.448 1513.339 1513.89 1513.841 1513.342 1512.63 1511.91 1511.37 1511.072 1510.932 1510.888 1511.05 1511.344 1511.494 1511.331 1511.026 1510.927 1511.273 1511.8 1512.234 1512.595 1513.014 1513.462 1513.812 1514.106 1514.327 1514.379 1514.386 1514.422 1514.586 1515.074 1515.748 1516.321 1516.687 1516.865 1516.919 1516.854 1516.752 1516.842 1516.805 1516.511 1516.035 1515.359 1514.62 1513.973 1513.494 1513.148 1512.903 1512.774 1512.789 1512.974 1513.247 1513.491 1513.698 1513.858 1513.979 1514.123 1514.284 1514.357
1567.045 1566.742 1566.596 1566.45 1566.216 1565.905 1565.524 1565.041 1564.455 1563.918 1563.486 1563.126 1562.901 1562.972 1563.136 1563.245 1563.295 1563.219 1562.967 1562.552 1562.063 1561.506 1560.855 1560.219 1559.788 1559.677 1559.721 1559.729 1559.568 1559.19 1558.698 1558.206 1557.874 1557.932 1558.342 1558.696 1558.815 1558.784 1558.802 1559.223 1560.096 1560.905 1561.047 1560.771 1560.747 1561.068 1561.247 1561.038 1560.536 1559.982 1559.572 1559.316 1559.238 1559.229 1559.111 1558.854 1558.559 1558.353 1558.468 1558.87 1559.128 1559.097 1558.966 1558.805 1558.605 1558.565 1558.673 1558.729 1558.696 1558.643 1558.604 1558.495 1558.154 1557.467 1556.56 1555.858 1555.574 1555.49 1555.415 1555.218 1554.809 1554.581 1554.83 1555.149 1555.256 1555.177 1555.081 1555.03 1554.894 1554.676 1554.431 1554.159 1553.957 1553.911 1553.931 1553.785 1553.27 1552.543 1551.837 1551.19 1550.51 1549.872 1549.515 1549.503 1549.658 1549.816 1549.931 1549.981 1549.98 1549.787 1549.109 1548.128 1547.26 1546.699 1546.398 1546.226 1546.118 1546.038 1545.948 1545.791 1545.539 1545.256 1544.965 1544.642 1544.434 1544.479 1544.586 1544.716 1544.965 1545.157 1545.131 1545.004 1544.895 1544.823 1544.732 1544.463 1543.929 1543.274 1542.613 1541.964 1541.369 1540.898 1540.493 1540.113 1540.021 1540.226 1540.474 1540.586 1540.566 1540.271 1539.724 1539.268 1538.994 1538.872 1538.772 1538.631 1538.312 1537.683 1536.912 1536.118 1535.303 1534.504 1533.679 1532.822 1532.033 1531.214 1530.285 1529.445 1528.652 1527.789 1526.922 1526.061 1525.282 1524.676 1524.102 1523.562 1523.117 1522.67 1522.182 1521.725 1521.304 1520.922 1520.603 1520.435 1520.484 1520.561 1520.449 1520.075 1519.404 1518.42 1517.329 1516.33 1515.518 1514.905 1514.421 1513.993 1513.601 1513.204 1512.795 1512.42 1512.107 1511.853 1511.6 1511.262 1510.845 1510.402 1510.096 1510.014 1509.988 1509.874 1509.662 1509.375 1508.926 1508.327 1507.911 1507.76 1507.679 1507.599 1507.535 1507.487 1507.566 1508.139 1509.323 1510.479 1511.163 1511.43 1511.44 1511.388 1511.408 1511.354 1511.106 1510.715 1510.205 1509.717 1509.335 1508.921 1508.426 1507.905 1507.373 1506.995 1507.072 1507.487 1507.858 1507.984 1507.948 1507.882 1507.848 1507.834 1507.869 1508.006 1508.061 1508.034 1508.009 1507.964 1507.944 1507.986 1508.239 1508.918 1509.776 1510.504 1511.047 1511.356 1511.434 1511.448 1511.454 1511.374 1511.227 1511.109 1511.046 1510.946 1510.805 1510.67 1510.472 1510.252 1510.403 1511.113 1512.01 1512.737 1513.072 1512.88 1512.379 1511.765 1511.189 1510.748 1510.544 1510.551 1510.618 1510.772 1511.005 1511.134 1510.977 1510.686 1510.585 1510.862 1511.409 1511.956 1512.442 1512.956 1513.394 1513.649 1513.815 1513.947 1514.011 1514.018 1514.005 1514.14 1514.618 1515.247 1515.754 1516.081 1516.278 1516.342 1516.273 1516.176 1516.268 1516.292 1516.029 1515.559 1514.954 1514.293 1513.689 1513.221 1512.872 1512.629 1512.472 1512.465 1512.697 1512.981 1513.24 1513.537 1513.748 1513.892 1514.035 1514.166 1514.259
1566.943 1566.683 1566.554 1566.361 1566.053 1565.697 1565.299 1564.845 1564.344 1563.89 1563.553 1563.297 1563.035 1562.87 1562.901 1563.004 1563.075 1563.095 1562.98 1562.712 1562.328 1561.812 1561.152 1560.439 1559.876 1559.584 1559.47 1559.405 1559.242 1558.892 1558.475 1558.115 1557.853 1557.793 1558.021 1558.355 1558.559 1558.546 1558.482 1558.859 1559.771 1560.584 1560.733 1560.484 1560.456 1560.735 1560.957 1560.808 1560.322 1559.732 1559.323 1559.117 1559.029 1558.908 1558.67 1558.414 1558.192 1558.029 1558.034 1558.238 1558.389 1558.354 1558.192 1557.99 1557.805 1557.726 1557.784 1557.875 1557.903 1557.925 1557.919 1557.738 1557.322 1556.66 1555.886 1555.295 1555.005 1554.898 1554.827 1554.635 1554.23 1553.932 1554.025 1554.249 1554.36 1554.373 1554.4 1554.474 1554.463 1554.312 1554.116 1553.921 1553.713 1553.541 1553.415 1553.112 1552.542 1551.956 1551.502 1551.082 1550.529 1549.924 1549.502 1549.364 1549.398 1549.453 1549.483 1549.498 1549.54 1549.431 1548.829 1547.94 1547.086 1546.429 1546.127 1546.031 1545.955 1545.88 1545.788 1545.627 1545.369 1545.042 1544.69 1544.329 1543.994 1543.781 1543.634 1543.541 1543.705 1544.028 1544.145 1544.07 1543.986 1543.938 1543.888 1543.763 1543.452 1542.947 1542.38 1541.804 1541.264 1540.763 1540.137 1539.417 1538.958 1539.015 1539.359 1539.614 1539.694 1539.414 1538.989 1538.715 1538.603 1538.636 1538.657 1538.538 1538.186 1537.563 1536.861 1536.161 1535.432 1534.66 1533.804 1532.942 1532.204 1531.429 1530.448 1529.523 1528.73 1527.941 1527.143 1526.297 1525.491 1524.811 1524.126 1523.417 1522.792 1522.2 1521.55 1520.96 1520.545 1520.222 1519.926 1519.74 1519.694 1519.69 1519.64 1519.378 1518.779 1517.857 1516.762 1515.609 1514.558 1513.761 1513.206 1512.839 1512.632 1512.427 1512.18 1511.959 1511.752 1511.547 1511.333 1511.008 1510.601 1510.209 1509.918 1509.776 1509.729 1509.663 1509.508 1509.241 1508.791 1508.218 1507.762 1507.517 1507.437 1507.425 1507.421 1507.452 1507.609 1508.134 1509.224 1510.332 1510.896 1511.063 1511.046 1510.977 1510.965 1510.882 1510.646 1510.304 1509.873 1509.416 1508.984 1508.535 1508.048 1507.543 1507.067 1506.791 1506.923 1507.388 1507.867 1508.125 1508.144 1508.015 1507.829 1507.679 1507.677 1507.751 1507.66 1507.46 1507.331 1507.301 1507.255 1507.225 1507.475 1508.168 1509.017 1509.814 1510.495 1510.885 1510.988 1511.015 1511.016 1510.911 1510.766 1510.712 1510.723 1510.673 1510.563 1510.453 1510.251 1509.963 1510.024 1510.575 1511.255 1511.823 1512.095 1511.861 1511.391 1510.925 1510.511 1510.225 1510.134 1510.254 1510.417 1510.547 1510.688 1510.781 1510.678 1510.497 1510.434 1510.586 1511.063 1511.708 1512.325 1512.867 1513.235 1513.41 1513.517 1513.604 1513.643 1513.649 1513.655 1513.725 1514.005 1514.515 1515.019 1515.363 1515.566 1515.61 1515.574 1515.553 1515.639 1515.683 1515.417 1514.917 1514.346 1513.764 1513.272 1512.929 1512.675 1512.47 1512.303 1512.262 1512.441 1512.694 1512.962 1513.272 1513.499 1513.673 1513.844 1513.998 1514.076
1566.861 1566.673 1566.471 1566.202 1565.894 1565.567 1565.155 1564.649 1564.189 1563.869 1563.653 1563.464 1563.204 1562.918 1562.76 1562.701 1562.709 1562.745 1562.699 1562.581 1562.328 1561.886 1561.316 1560.65 1560.023 1559.6 1559.357 1559.149 1558.898 1558.627 1558.325 1558.03 1557.774 1557.615 1557.73 1558.105 1558.33 1558.239 1558.082 1558.38 1559.336 1560.279 1560.571 1560.397 1560.346 1560.536 1560.665 1560.46 1560 1559.509 1559.173 1558.965 1558.814 1558.624 1558.314 1557.986 1557.792 1557.702 1557.661 1557.664 1557.655 1557.623 1557.498 1557.275 1557.012 1556.829 1556.892 1557.167 1557.392 1557.503 1557.468 1557.205 1556.773 1556.195 1555.512 1554.934 1554.589 1554.402 1554.279 1554.116 1553.814 1553.519 1553.426 1553.475 1553.558 1553.652 1553.776 1553.913 1553.993 1553.956 1553.833 1553.676 1553.438 1553.166 1552.893 1552.485 1552.002 1551.627 1551.345 1550.998 1550.459 1549.847 1549.395 1549.212 1549.177 1549.171 1549.176 1549.187 1549.224 1549.135 1548.639 1547.857 1547.031 1546.339 1545.983 1545.851 1545.774 1545.712 1545.622 1545.46 1545.223 1544.939 1544.62 1544.245 1543.805 1543.379 1543.026 1542.714 1542.621 1542.862 1543.083 1543.091 1543.004 1542.917 1542.865 1542.815 1542.662 1542.346 1541.953 1541.563 1541.109 1540.494 1539.649 1538.698 1538.024 1538.01 1538.389 1538.76 1538.925 1538.699 1538.429 1538.329 1538.341 1538.481 1538.639 1538.557 1538.035 1537.214 1536.452 1535.778 1535.052 1534.276 1533.55 1532.891 1532.261 1531.552 1530.621 1529.662 1528.799 1527.994 1527.251 1526.495 1525.713 1524.921 1524.066 1523.155 1522.378 1521.688 1520.964 1520.335 1519.918 1519.582 1519.266 1519.044 1518.888 1518.735 1518.64 1518.464 1518.032 1517.289 1516.271 1515.072 1513.888 1512.935 1512.279 1511.929 1511.875 1511.883 1511.797 1511.672 1511.518 1511.319 1511.094 1510.791 1510.436 1510.108 1509.834 1509.605 1509.449 1509.38 1509.292 1509.055 1508.608 1508.08 1507.614 1507.285 1507.253 1507.433 1507.576 1507.707 1507.968 1508.492 1509.445 1510.322 1510.659 1510.741 1510.773 1510.709 1510.552 1510.357 1510.118 1509.819 1509.453 1509.007 1508.556 1508.166 1507.759 1507.306 1506.93 1506.772 1506.905 1507.316 1507.788 1508.084 1508.182 1508.11 1507.922 1507.733 1507.671 1507.609 1507.365 1507.001 1506.707 1506.651 1506.649 1506.628 1506.837 1507.438 1508.222 1509.033 1509.796 1510.318 1510.523 1510.554 1510.501 1510.363 1510.254 1510.268 1510.329 1510.342 1510.293 1510.208 1510.05 1509.826 1509.759 1509.923 1510.248 1510.709 1511.051 1510.921 1510.499 1510.157 1509.918 1509.774 1509.781 1509.972 1510.198 1510.355 1510.453 1510.483 1510.432 1510.355 1510.318 1510.415 1510.823 1511.483 1512.156 1512.683 1512.993 1513.133 1513.223 1513.297 1513.309 1513.282 1513.295 1513.331 1513.468 1513.849 1514.287 1514.603 1514.766 1514.783 1514.792 1514.878 1515.011 1514.994 1514.65 1514.133 1513.636 1513.253 1512.969 1512.695 1512.467 1512.273 1512.12 1512.116 1512.23 1512.402 1512.631 1512.842 1513.022 1513.204 1513.386 1513.567 1513.607
1566.634 1566.553 1566.314 1566.028 1565.771 1565.489 1565.076 1564.56 1564.164 1563.948 1563.787 1563.614 1563.368 1563.035 1562.702 1562.433 1562.263 1562.182 1562.166 1562.175 1562.048 1561.712 1561.269 1560.744 1560.179 1559.73 1559.441 1559.138 1558.711 1558.348 1558.1 1557.832 1557.553 1557.357 1557.402 1557.748 1557.971 1557.842 1557.672 1557.999 1559.018 1560.042 1560.392 1560.25 1560.222 1560.373 1560.394 1560.128 1559.7 1559.286 1558.92 1558.597 1558.379 1558.211 1557.96 1557.641 1557.464 1557.433 1557.431 1557.392 1557.27 1557.103 1556.904 1556.653 1556.33 1556.035 1556.036 1556.457 1556.942 1557.137 1557.004 1556.662 1556.222 1555.759 1555.262 1554.725 1554.326 1554.069 1553.859 1553.667 1553.459 1553.247 1553.064 1552.953 1552.969 1553.08 1553.223 1553.354 1553.453 1553.516 1553.526 1553.432 1553.182 1552.839 1552.472 1552.09 1551.759 1551.501 1551.262 1550.924 1550.376 1549.727 1549.237 1549.058 1549.016 1548.986 1548.98 1548.984 1548.99 1548.888 1548.484 1547.794 1546.997 1546.268 1545.796 1545.603 1545.537 1545.484 1545.413 1545.329 1545.233 1545.056 1544.722 1544.261 1543.743 1543.215 1542.688 1542.15 1541.776 1541.798 1541.964 1541.97 1541.872 1541.792 1541.78 1541.79 1541.672 1541.423 1541.177 1541.003 1540.74 1540.175 1539.291 1538.309 1537.57 1537.358 1537.588 1537.985 1538.215 1538.163 1538.082 1538.072 1538.122 1538.297 1538.549 1538.543 1537.892 1536.861 1535.949 1535.175 1534.403 1533.677 1533.128 1532.691 1532.177 1531.548 1530.725 1529.783 1528.85 1527.983 1527.212 1526.49 1525.753 1524.952 1524.063 1523.103 1522.212 1521.395 1520.603 1519.9 1519.343 1518.914 1518.575 1518.3 1518.083 1517.886 1517.702 1517.461 1517.084 1516.479 1515.586 1514.458 1513.32 1512.391 1511.733 1511.352 1511.292 1511.405 1511.447 1511.381 1511.269 1511.098 1510.854 1510.571 1510.284 1509.994 1509.674 1509.325 1509.043 1508.963 1508.924 1508.701 1508.261 1507.78 1507.348 1507.035 1507.089 1507.432 1507.774 1508.025 1508.339 1508.927 1509.792 1510.446 1510.604 1510.612 1510.614 1510.465 1510.19 1509.936 1509.672 1509.341 1508.964 1508.514 1508.062 1507.719 1507.413 1507.105 1506.888 1506.798 1506.844 1507.077 1507.395 1507.662 1507.835 1507.872 1507.79 1507.638 1507.527 1507.363 1507.019 1506.561 1506.152 1506.02 1506.017 1506.017 1506.219 1506.766 1507.489 1508.259 1509.014 1509.611 1509.945 1510.003 1509.897 1509.734 1509.634 1509.655 1509.735 1509.834 1509.908 1509.928 1509.867 1509.721 1509.584 1509.518 1509.544 1509.727 1510.017 1510.041 1509.668 1509.447 1509.455 1509.45 1509.518 1509.762 1510.031 1510.229 1510.298 1510.284 1510.354 1510.407 1510.35 1510.357 1510.694 1511.312 1511.921 1512.369 1512.631 1512.771 1512.876 1512.958 1512.959 1512.896 1512.9 1512.96 1513.082 1513.348 1513.656 1513.889 1513.988 1513.997 1514.046 1514.21 1514.34 1514.164 1513.725 1513.271 1512.978 1512.905 1512.854 1512.588 1512.256 1512 1511.842 1511.887 1512.004 1512.082 1512.17 1512.26 1512.366 1512.512 1512.684 1512.866 1512.894
1566.416 1566.393 1566.18 1565.904 1565.668 1565.396 1564.975 1564.524 1564.233 1564.068 1563.922 1563.749 1563.48 1563.094 1562.662 1562.261 1561.97 1561.849 1561.865 1561.891 1561.797 1561.557 1561.199 1560.767 1560.295 1559.884 1559.599 1559.269 1558.717 1558.155 1557.817 1557.552 1557.321 1557.18 1557.093 1557.19 1557.35 1557.314 1557.285 1557.701 1558.734 1559.718 1560.051 1560.012 1560.02 1560.097 1560.079 1559.852 1559.418 1558.919 1558.458 1558.068 1557.813 1557.654 1557.47 1557.23 1557.086 1557.091 1557.137 1557.139 1557.001 1556.709 1556.386 1556.089 1555.747 1555.404 1555.343 1555.717 1556.223 1556.496 1556.435 1556.12 1555.679 1555.268 1554.927 1554.535 1554.129 1553.832 1553.597 1553.389 1553.247 1553.104 1552.906 1552.707 1552.605 1552.618 1552.706 1552.836 1552.973 1553.085 1553.151 1553.137 1552.946 1552.587 1552.207 1551.9 1551.651 1551.423 1551.187 1550.848 1550.289 1549.596 1549.068 1548.904 1548.891 1548.861 1548.826 1548.729 1548.601 1548.454 1548.168 1547.657 1546.947 1546.185 1545.566 1545.242 1545.148 1545.124 1545.115 1545.112 1545.122 1545.027 1544.664 1544.175 1543.718 1543.2 1542.498 1541.694 1541.077 1540.899 1540.926 1540.86 1540.746 1540.697 1540.736 1540.76 1540.637 1540.467 1540.365 1540.278 1540.124 1539.776 1539.124 1538.297 1537.522 1536.996 1536.922 1537.281 1537.678 1537.825 1537.84 1537.849 1537.904 1538.078 1538.262 1538.133 1537.454 1536.412 1535.406 1534.579 1533.865 1533.253 1532.819 1532.493 1532.041 1531.441 1530.681 1529.778 1528.835 1527.934 1527.122 1526.402 1525.71 1524.959 1524.1 1523.14 1522.187 1521.319 1520.537 1519.8 1519.076 1518.435 1517.937 1517.549 1517.296 1517.112 1516.861 1516.524 1516.075 1515.485 1514.709 1513.713 1512.736 1511.922 1511.307 1510.922 1510.78 1510.87 1511.032 1511.122 1511.1 1510.918 1510.608 1510.312 1510.06 1509.769 1509.378 1508.952 1508.621 1508.523 1508.47 1508.206 1507.751 1507.302 1506.949 1506.777 1506.922 1507.307 1507.779 1508.19 1508.592 1509.227 1509.986 1510.497 1510.655 1510.618 1510.476 1510.263 1509.986 1509.675 1509.341 1508.936 1508.455 1507.933 1507.443 1507.065 1506.805 1506.636 1506.514 1506.414 1506.38 1506.487 1506.714 1506.984 1507.175 1507.227 1507.203 1507.107 1507.003 1506.863 1506.54 1506.063 1505.593 1505.331 1505.262 1505.311 1505.585 1506.128 1506.814 1507.535 1508.236 1508.853 1509.285 1509.398 1509.288 1509.141 1509.037 1509 1509.032 1509.147 1509.297 1509.435 1509.53 1509.543 1509.453 1509.321 1509.209 1509.174 1509.245 1509.249 1509.081 1509.041 1509.145 1509.213 1509.328 1509.585 1509.841 1509.997 1510.041 1510.103 1510.311 1510.473 1510.41 1510.35 1510.625 1511.145 1511.657 1512.036 1512.226 1512.324 1512.424 1512.516 1512.54 1512.495 1512.507 1512.554 1512.643 1512.887 1513.142 1513.31 1513.365 1513.349 1513.397 1513.601 1513.755 1513.646 1513.362 1513.043 1512.879 1512.916 1512.902 1512.601 1512.123 1511.702 1511.505 1511.578 1511.713 1511.765 1511.764 1511.751 1511.754 1511.807 1511.92 1512.081 1512.141
1566.021 1566.128 1566.041 1565.788 1565.508 1565.2 1564.797 1564.429 1564.246 1564.186 1564.079 1563.841 1563.477 1563.051 1562.601 1562.177 1561.896 1561.8 1561.827 1561.846 1561.755 1561.554 1561.232 1560.829 1560.411 1560.068 1559.787 1559.41 1558.806 1558.107 1557.575 1557.299 1557.285 1557.249 1556.905 1556.547 1556.519 1556.596 1556.738 1557.305 1558.401 1559.379 1559.7 1559.672 1559.635 1559.69 1559.711 1559.516 1559.073 1558.486 1557.934 1557.503 1557.22 1557.05 1556.879 1556.69 1556.605 1556.651 1556.718 1556.744 1556.65 1556.392 1556.05 1555.673 1555.284 1555 1554.967 1555.172 1555.481 1555.751 1555.809 1555.617 1555.301 1554.953 1554.616 1554.267 1553.925 1553.695 1553.481 1553.25 1553.123 1552.992 1552.785 1552.541 1552.316 1552.134 1552.072 1552.216 1552.457 1552.675 1552.827 1552.892 1552.758 1552.391 1552.013 1551.775 1551.573 1551.348 1551.108 1550.761 1550.185 1549.461 1548.899 1548.749 1548.786 1548.744 1548.585 1548.332 1548.095 1547.912 1547.634 1547.202 1546.58 1545.903 1545.325 1544.947 1544.806 1544.809 1544.854 1544.877 1544.877 1544.815 1544.555 1544.183 1543.804 1543.272 1542.463 1541.517 1540.753 1540.453 1540.379 1540.151 1539.817 1539.668 1539.729 1539.762 1539.706 1539.68 1539.684 1539.615 1539.469 1539.259 1538.849 1538.16 1537.375 1536.719 1536.427 1536.675 1537.192 1537.484 1537.559 1537.603 1537.647 1537.67 1537.573 1537.274 1536.694 1535.784 1534.826 1534.07 1533.483 1533.005 1532.635 1532.307 1531.857 1531.272 1530.542 1529.67 1528.758 1527.869 1527.031 1526.298 1525.631 1524.924 1524.069 1523.078 1522.109 1521.254 1520.473 1519.688 1518.878 1518.116 1517.502 1517.025 1516.645 1516.292 1515.976 1515.643 1515.168 1514.564 1513.852 1513.002 1512.154 1511.403 1510.82 1510.42 1510.218 1510.305 1510.554 1510.78 1510.842 1510.639 1510.311 1510.027 1509.789 1509.49 1509.06 1508.618 1508.3 1508.169 1508.006 1507.603 1507.094 1506.694 1506.489 1506.533 1506.771 1507.146 1507.646 1508.165 1508.709 1509.385 1510.013 1510.423 1510.605 1510.531 1510.33 1510.141 1509.864 1509.461 1509.021 1508.512 1507.836 1507.125 1506.591 1506.256 1506.084 1505.994 1505.892 1505.771 1505.674 1505.647 1505.779 1506.068 1506.265 1506.311 1506.318 1506.284 1506.234 1506.182 1505.954 1505.512 1505.019 1504.649 1504.516 1504.593 1504.914 1505.467 1506.111 1506.762 1507.407 1508.019 1508.512 1508.729 1508.707 1508.604 1508.49 1508.359 1508.281 1508.355 1508.477 1508.609 1508.79 1508.999 1509.122 1509.095 1509.001 1508.908 1508.838 1508.832 1508.911 1509.029 1509.104 1509.129 1509.22 1509.422 1509.631 1509.742 1509.794 1509.987 1510.242 1510.391 1510.372 1510.358 1510.569 1510.953 1511.387 1511.756 1511.961 1512.044 1512.097 1512.137 1512.145 1512.118 1512.128 1512.161 1512.246 1512.468 1512.699 1512.878 1512.987 1513.008 1513.026 1513.132 1513.232 1513.223 1513.153 1513.076 1513.059 1513.085 1512.981 1512.59 1511.973 1511.424 1511.167 1511.201 1511.304 1511.337 1511.328 1511.301 1511.279 1511.276 1511.294 1511.352 1511.408
1565.338 1565.482 1565.527 1565.385 1565.15 1564.898 1564.621 1564.374 1564.242 1564.218 1564.094 1563.781 1563.373 1562.95 1562.526 1562.146 1561.886 1561.763 1561.784 1561.799 1561.695 1561.518 1561.27 1560.935 1560.582 1560.301 1560.064 1559.686 1559.047 1558.287 1557.625 1557.246 1557.254 1557.287 1556.83 1556.138 1555.85 1555.892 1556.146 1556.835 1557.991 1559.027 1559.362 1559.238 1559.116 1559.255 1559.358 1559.177 1558.748 1558.094 1557.412 1556.88 1556.58 1556.432 1556.284 1556.155 1556.124 1556.161 1556.201 1556.254 1556.237 1556.077 1555.833 1555.45 1554.999 1554.765 1554.765 1554.824 1554.915 1555.1 1555.211 1555.167 1555.014 1554.746 1554.404 1554.056 1553.776 1553.624 1553.457 1553.214 1553.01 1552.809 1552.566 1552.272 1551.942 1551.584 1551.368 1551.525 1551.906 1552.308 1552.596 1552.709 1552.586 1552.208 1551.819 1551.596 1551.443 1551.262 1551.035 1550.675 1550.073 1549.321 1548.732 1548.563 1548.533 1548.337 1548.028 1547.731 1547.57 1547.486 1547.229 1546.776 1546.21 1545.638 1545.129 1544.736 1544.538 1544.527 1544.59 1544.63 1544.639 1544.611 1544.443 1544.164 1543.886 1543.491 1542.736 1541.738 1540.853 1540.396 1540.245 1539.949 1539.434 1539.07 1538.984 1538.965 1538.971 1539.025 1539.063 1539.001 1538.849 1538.69 1538.421 1537.846 1537.122 1536.474 1536.087 1536.179 1536.657 1537.051 1537.2 1537.264 1537.256 1537.059 1536.673 1536.241 1535.749 1535.042 1534.286 1533.694 1533.24 1532.857 1532.482 1532.054 1531.554 1530.992 1530.285 1529.412 1528.491 1527.612 1526.83 1526.155 1525.509 1524.793 1523.904 1522.899 1521.924 1521.029 1520.172 1519.361 1518.588 1517.849 1517.195 1516.594 1515.951 1515.375 1515.027 1514.715 1514.277 1513.736 1513.07 1512.309 1511.561 1510.87 1510.262 1509.796 1509.599 1509.752 1510.051 1510.319 1510.425 1510.274 1509.996 1509.727 1509.491 1509.191 1508.758 1508.36 1508.074 1507.829 1507.475 1506.979 1506.488 1506.157 1506.056 1506.232 1506.582 1506.981 1507.479 1508.047 1508.677 1509.39 1510.002 1510.339 1510.419 1510.326 1510.194 1510.024 1509.663 1509.166 1508.625 1507.968 1507.142 1506.317 1505.74 1505.488 1505.411 1505.355 1505.259 1505.122 1504.954 1504.768 1504.768 1505.072 1505.282 1505.32 1505.344 1505.354 1505.389 1505.45 1505.322 1504.923 1504.443 1504.063 1503.875 1503.885 1504.182 1504.74 1505.339 1505.916 1506.515 1507.122 1507.662 1507.997 1508.108 1508.058 1507.929 1507.75 1507.633 1507.651 1507.636 1507.651 1507.836 1508.136 1508.428 1508.617 1508.673 1508.616 1508.568 1508.672 1508.877 1509.029 1509.098 1509.1 1509.12 1509.209 1509.335 1509.45 1509.562 1509.8 1510.044 1510.116 1510.056 1510.075 1510.319 1510.685 1511.065 1511.413 1511.653 1511.76 1511.793 1511.798 1511.773 1511.736 1511.77 1511.851 1511.947 1512.126 1512.348 1512.568 1512.76 1512.85 1512.844 1512.822 1512.858 1512.924 1513 1513.09 1513.134 1513.046 1512.815 1512.36 1511.647 1511.014 1510.703 1510.675 1510.722 1510.736 1510.74 1510.737 1510.737 1510.739 1510.734 1510.739 1510.769
1564.42 1564.565 1564.684 1564.658 1564.542 1564.478 1564.42 1564.33 1564.259 1564.165 1563.935 1563.584 1563.201 1562.813 1562.454 1562.152 1561.902 1561.745 1561.7 1561.645 1561.509 1561.362 1561.211 1560.996 1560.768 1560.58 1560.432 1560.123 1559.484 1558.711 1557.973 1557.388 1557.161 1557.078 1556.651 1555.892 1555.259 1555.05 1555.403 1556.309 1557.55 1558.621 1558.974 1558.761 1558.651 1558.913 1559.084 1558.948 1558.538 1557.836 1557.083 1556.484 1556.104 1555.92 1555.791 1555.694 1555.677 1555.658 1555.62 1555.685 1555.769 1555.7 1555.537 1555.25 1554.801 1554.509 1554.498 1554.534 1554.489 1554.527 1554.62 1554.667 1554.665 1554.568 1554.313 1553.976 1553.701 1553.57 1553.457 1553.229 1552.934 1552.625 1552.276 1551.83 1551.363 1550.978 1550.785 1550.984 1551.48 1552.02 1552.391 1552.499 1552.342 1551.99 1551.614 1551.357 1551.225 1551.113 1550.939 1550.588 1549.964 1549.213 1548.604 1548.3 1548.029 1547.651 1547.302 1547.088 1547.059 1547.119 1546.998 1546.567 1546.006 1545.47 1544.985 1544.583 1544.32 1544.239 1544.27 1544.298 1544.314 1544.334 1544.26 1544.062 1543.888 1543.726 1543.241 1542.343 1541.413 1540.785 1540.418 1540.033 1539.518 1539.087 1538.872 1538.72 1538.578 1538.505 1538.469 1538.343 1538.174 1538.066 1537.896 1537.449 1536.822 1536.219 1535.803 1535.782 1536.176 1536.611 1536.795 1536.833 1536.78 1536.501 1536.009 1535.474 1534.961 1534.418 1533.885 1533.444 1533.067 1532.7 1532.214 1531.563 1531.017 1530.546 1529.896 1529.025 1528.075 1527.188 1526.466 1525.885 1525.305 1524.576 1523.641 1522.66 1521.69 1520.716 1519.76 1518.926 1518.212 1517.53 1516.87 1516.176 1515.363 1514.636 1514.179 1513.803 1513.369 1512.858 1512.264 1511.647 1511.024 1510.383 1509.734 1509.169 1508.939 1509.154 1509.518 1509.787 1509.868 1509.771 1509.604 1509.406 1509.166 1508.864 1508.493 1508.163 1507.867 1507.483 1507.003 1506.497 1506.035 1505.713 1505.624 1505.805 1506.212 1506.754 1507.364 1508.022 1508.678 1509.295 1509.858 1510.131 1510.128 1510.088 1510.046 1509.893 1509.474 1508.86 1508.195 1507.464 1506.651 1505.843 1505.185 1504.839 1504.762 1504.726 1504.611 1504.433 1504.241 1503.99 1503.84 1504.086 1504.293 1504.289 1504.274 1504.277 1504.385 1504.621 1504.656 1504.306 1503.817 1503.419 1503.188 1503.165 1503.448 1503.984 1504.56 1505.11 1505.684 1506.276 1506.809 1507.201 1507.43 1507.468 1507.352 1507.183 1507.105 1507.055 1506.919 1506.846 1506.991 1507.253 1507.542 1507.84 1508.084 1508.203 1508.25 1508.429 1508.682 1508.826 1508.879 1508.902 1508.917 1508.944 1508.994 1509.076 1509.215 1509.448 1509.688 1509.726 1509.623 1509.661 1509.952 1510.32 1510.662 1510.975 1511.196 1511.307 1511.364 1511.403 1511.388 1511.337 1511.391 1511.526 1511.661 1511.841 1512.067 1512.309 1512.536 1512.673 1512.663 1512.57 1512.563 1512.66 1512.778 1512.858 1512.791 1512.549 1512.23 1511.808 1511.154 1510.42 1509.984 1509.977 1510.063 1510.099 1510.136 1510.169 1510.206 1510.244 1510.28 1510.316 1510.326
1563.447 1563.602 1563.764 1563.824 1563.788 1563.824 1563.863 1563.875 1563.963 1563.959 1563.703 1563.327 1562.962 1562.65 1562.41 1562.199 1561.985 1561.79 1561.608 1561.421 1561.243 1561.114 1561.021 1560.93 1560.889 1560.88 1560.833 1560.597 1559.999 1559.218 1558.364 1557.542 1557.118 1556.941 1556.551 1555.798 1554.907 1554.378 1554.68 1555.761 1557.096 1558.169 1558.536 1558.337 1558.315 1558.646 1558.844 1558.727 1558.313 1557.621 1556.879 1556.27 1555.801 1555.51 1555.391 1555.317 1555.265 1555.166 1555.03 1555.085 1555.267 1555.32 1555.229 1555.046 1554.688 1554.294 1554.131 1554.14 1554.092 1554.065 1554.138 1554.246 1554.385 1554.458 1554.28 1553.925 1553.644 1553.509 1553.358 1553.069 1552.683 1552.278 1551.813 1551.206 1550.64 1550.355 1550.338 1550.628 1551.174 1551.771 1552.197 1552.292 1552.091 1551.765 1551.408 1551.109 1550.951 1550.867 1550.754 1550.482 1549.929 1549.219 1548.524 1547.893 1547.275 1546.818 1546.595 1546.526 1546.575 1546.685 1546.664 1546.354 1545.842 1545.318 1544.865 1544.472 1544.163 1543.984 1543.895 1543.87 1543.888 1543.931 1543.961 1543.921 1543.828 1543.787 1543.603 1543.007 1542.181 1541.474 1540.949 1540.502 1540.054 1539.592 1539.202 1538.894 1538.6 1538.269 1537.909 1537.594 1537.415 1537.384 1537.281 1536.939 1536.463 1535.975 1535.557 1535.412 1535.714 1536.131 1536.294 1536.283 1536.201 1535.939 1535.475 1534.952 1534.448 1533.982 1533.58 1533.226 1532.881 1532.476 1531.834 1530.974 1530.273 1529.783 1529.202 1528.392 1527.488 1526.642 1525.956 1525.417 1524.911 1524.223 1523.312 1522.405 1521.466 1520.418 1519.335 1518.42 1517.73 1517.149 1516.551 1515.835 1515.01 1514.216 1513.555 1512.981 1512.426 1511.858 1511.318 1510.854 1510.351 1509.784 1509.205 1508.639 1508.362 1508.561 1508.94 1509.204 1509.263 1509.202 1509.107 1508.972 1508.793 1508.565 1508.278 1507.993 1507.693 1507.246 1506.721 1506.249 1505.784 1505.363 1505.177 1505.287 1505.707 1506.47 1507.363 1508.216 1508.884 1509.272 1509.524 1509.649 1509.703 1509.783 1509.836 1509.737 1509.297 1508.52 1507.703 1507.019 1506.341 1505.63 1505.007 1504.55 1504.277 1504.132 1504.035 1503.914 1503.755 1503.495 1503.192 1503.204 1503.34 1503.333 1503.288 1503.278 1503.38 1503.599 1503.66 1503.461 1503.108 1502.716 1502.467 1502.466 1502.734 1503.222 1503.763 1504.292 1504.851 1505.426 1505.937 1506.343 1506.668 1506.837 1506.768 1506.642 1506.642 1506.608 1506.478 1506.422 1506.555 1506.775 1507.009 1507.268 1507.525 1507.712 1507.833 1508.054 1508.333 1508.49 1508.505 1508.473 1508.458 1508.464 1508.498 1508.589 1508.749 1508.973 1509.206 1509.307 1509.331 1509.443 1509.664 1509.942 1510.249 1510.52 1510.685 1510.776 1510.845 1510.911 1510.95 1510.935 1510.962 1511.115 1511.329 1511.559 1511.814 1512.095 1512.347 1512.48 1512.454 1512.324 1512.262 1512.294 1512.361 1512.357 1512.158 1511.832 1511.483 1511.107 1510.56 1509.842 1509.446 1509.524 1509.645 1509.689 1509.742 1509.798 1509.856 1509.914 1509.973 1510.03 1509.998
1562.621 1562.747 1562.853 1562.939 1562.974 1563.027 1563.079 1563.187 1563.417 1563.579 1563.451 1563.117 1562.756 1562.49 1562.309 1562.168 1562.009 1561.782 1561.516 1561.254 1561.043 1560.905 1560.797 1560.73 1560.793 1560.958 1561.072 1560.946 1560.444 1559.664 1558.637 1557.631 1557.159 1557.019 1556.656 1555.824 1554.723 1553.935 1554.126 1555.266 1556.654 1557.715 1558.067 1557.931 1558.01 1558.299 1558.427 1558.304 1557.889 1557.27 1556.674 1556.199 1555.71 1555.24 1555.01 1554.942 1554.868 1554.689 1554.467 1554.5 1554.733 1554.907 1554.927 1554.805 1554.557 1554.217 1553.935 1553.791 1553.67 1553.639 1553.815 1554.04 1554.241 1554.339 1554.156 1553.799 1553.508 1553.303 1553.073 1552.742 1552.306 1551.839 1551.343 1550.763 1550.239 1550.016 1550.104 1550.457 1550.994 1551.572 1552.016 1552.124 1551.935 1551.613 1551.242 1550.899 1550.664 1550.527 1550.432 1550.256 1549.807 1549.125 1548.332 1547.485 1546.59 1545.893 1545.596 1545.63 1545.814 1545.936 1545.974 1545.869 1545.535 1545.125 1544.737 1544.35 1544.003 1543.716 1543.478 1543.394 1543.428 1543.498 1543.638 1543.794 1543.791 1543.73 1543.624 1543.242 1542.639 1542.058 1541.533 1541.009 1540.49 1539.951 1539.453 1539.032 1538.521 1537.889 1537.287 1536.897 1536.704 1536.651 1536.614 1536.428 1536.061 1535.615 1535.174 1534.931 1535.126 1535.474 1535.62 1535.601 1535.506 1535.298 1534.936 1534.475 1534.011 1533.607 1533.242 1532.888 1532.555 1532.138 1531.43 1530.463 1529.543 1528.888 1528.294 1527.536 1526.719 1525.986 1525.364 1524.815 1524.269 1523.6 1522.836 1522.079 1521.189 1520.076 1518.889 1517.951 1517.369 1516.877 1516.25 1515.495 1514.672 1513.814 1513.02 1512.265 1511.5 1510.813 1510.29 1509.918 1509.481 1508.926 1508.445 1508.093 1507.939 1508.134 1508.472 1508.695 1508.759 1508.708 1508.54 1508.304 1508.118 1508.036 1507.919 1507.677 1507.319 1506.868 1506.441 1506.08 1505.611 1505.118 1504.835 1504.854 1505.293 1506.183 1507.22 1508.115 1508.7 1508.918 1508.885 1508.819 1508.888 1509.053 1509.204 1509.183 1508.72 1507.878 1507.073 1506.49 1505.965 1505.426 1504.924 1504.456 1504.023 1503.747 1503.664 1503.569 1503.397 1503.127 1502.726 1502.478 1502.469 1502.488 1502.482 1502.498 1502.54 1502.569 1502.521 1502.41 1502.224 1501.964 1501.76 1501.759 1501.983 1502.409 1502.907 1503.397 1503.898 1504.428 1504.956 1505.453 1505.881 1506.156 1506.228 1506.217 1506.232 1506.216 1506.171 1506.2 1506.346 1506.542 1506.738 1506.936 1507.132 1507.246 1507.295 1507.507 1507.78 1507.935 1507.956 1507.9 1507.851 1507.836 1507.884 1508.042 1508.241 1508.445 1508.674 1508.9 1509.073 1509.222 1509.403 1509.643 1509.932 1510.164 1510.242 1510.244 1510.288 1510.372 1510.451 1510.494 1510.546 1510.717 1511.017 1511.348 1511.66 1511.931 1512.112 1512.233 1512.252 1512.136 1512.048 1512.018 1511.97 1511.804 1511.488 1511.111 1510.731 1510.35 1509.874 1509.323 1509.125 1509.296 1509.435 1509.476 1509.508 1509.547 1509.599 1509.659 1509.719 1509.779 1509.684
1561.867 1562.019 1562.108 1562.148 1562.168 1562.217 1562.321 1562.519 1562.814 1563.089 1563.129 1562.92 1562.631 1562.371 1562.155 1562.019 1561.897 1561.675 1561.377 1561.096 1560.914 1560.789 1560.629 1560.507 1560.576 1560.821 1561.076 1561.083 1560.65 1559.846 1558.731 1557.69 1557.251 1557.12 1556.748 1555.891 1554.647 1553.638 1553.665 1554.766 1556.203 1557.262 1557.532 1557.345 1557.387 1557.629 1557.731 1557.578 1557.194 1556.737 1556.364 1556.077 1555.643 1555.068 1554.65 1554.513 1554.464 1554.257 1553.932 1553.822 1554.018 1554.316 1554.508 1554.499 1554.351 1554.115 1553.838 1553.614 1553.447 1553.45 1553.715 1554.004 1554.18 1554.192 1553.98 1553.671 1553.356 1553.032 1552.713 1552.372 1551.952 1551.475 1550.977 1550.49 1550.119 1549.996 1550.106 1550.445 1550.97 1551.482 1551.77 1551.811 1551.693 1551.461 1551.163 1550.844 1550.541 1550.279 1550.095 1549.908 1549.492 1548.813 1548.01 1547.149 1546.187 1545.296 1544.735 1544.617 1544.783 1544.946 1545.057 1545.11 1545.032 1544.823 1544.504 1544.113 1543.715 1543.365 1543.049 1542.889 1542.912 1543.035 1543.325 1543.639 1543.716 1543.65 1543.497 1543.194 1542.818 1542.386 1541.852 1541.226 1540.635 1540.086 1539.555 1539.012 1538.33 1537.603 1537.033 1536.698 1536.468 1536.26 1536.126 1535.975 1535.654 1535.24 1534.803 1534.409 1534.306 1534.513 1534.738 1534.795 1534.696 1534.511 1534.282 1533.964 1533.587 1533.222 1532.837 1532.444 1532.072 1531.589 1530.85 1529.904 1528.925 1528.109 1527.403 1526.674 1525.946 1525.273 1524.67 1524.127 1523.581 1522.941 1522.285 1521.635 1520.848 1519.84 1518.711 1517.83 1517.251 1516.663 1515.953 1515.182 1514.323 1513.386 1512.525 1511.681 1510.746 1509.873 1509.275 1508.929 1508.523 1507.964 1507.612 1507.542 1507.573 1507.775 1508.047 1508.235 1508.3 1508.174 1507.84 1507.433 1507.19 1507.246 1507.345 1507.248 1506.939 1506.478 1506.099 1505.829 1505.424 1504.984 1504.692 1504.656 1505.095 1505.937 1506.762 1507.449 1507.998 1508.245 1508.117 1507.899 1507.863 1507.975 1508.107 1508.117 1507.773 1507.109 1506.446 1505.926 1505.487 1505.055 1504.587 1504.092 1503.61 1503.289 1503.216 1503.167 1503.019 1502.766 1502.375 1502.017 1501.873 1501.88 1501.908 1501.893 1501.812 1501.694 1501.578 1501.46 1501.327 1501.167 1501.015 1500.985 1501.163 1501.546 1502.016 1502.477 1502.907 1503.37 1503.948 1504.571 1505.092 1505.425 1505.607 1505.701 1505.712 1505.679 1505.709 1505.866 1506.068 1506.256 1506.437 1506.617 1506.755 1506.717 1506.625 1506.817 1507.121 1507.287 1507.313 1507.266 1507.222 1507.198 1507.248 1507.42 1507.636 1507.843 1508.049 1508.345 1508.654 1508.872 1509.102 1509.388 1509.667 1509.842 1509.836 1509.733 1509.744 1509.847 1509.942 1510 1510.091 1510.335 1510.697 1511.09 1511.436 1511.649 1511.775 1511.915 1512.009 1511.971 1511.888 1511.793 1511.626 1511.349 1511.008 1510.678 1510.368 1510.059 1509.636 1509.098 1508.901 1509.093 1509.263 1509.312 1509.332 1509.35 1509.378 1509.42 1509.471 1509.529 1509.375
1561.093 1561.291 1561.443 1561.475 1561.412 1561.447 1561.621 1561.881 1562.219 1562.551 1562.679 1562.582 1562.401 1562.217 1562.061 1561.921 1561.748 1561.493 1561.191 1560.955 1560.829 1560.702 1560.507 1560.343 1560.374 1560.651 1560.973 1561.013 1560.59 1559.78 1558.714 1557.789 1557.354 1557.132 1556.757 1555.995 1554.786 1553.643 1553.418 1554.35 1555.766 1556.789 1557.029 1556.815 1556.714 1556.841 1556.917 1556.771 1556.52 1556.266 1556.05 1555.852 1555.46 1554.875 1554.379 1554.204 1554.15 1553.901 1553.508 1553.28 1553.385 1553.675 1553.978 1554.155 1554.123 1553.949 1553.739 1553.555 1553.412 1553.448 1553.73 1554.023 1554.13 1554.058 1553.874 1553.63 1553.305 1552.922 1552.516 1552.082 1551.628 1551.132 1550.625 1550.237 1550.088 1550.161 1550.309 1550.579 1550.973 1551.255 1551.346 1551.358 1551.355 1551.28 1551.1 1550.843 1550.526 1550.145 1549.813 1549.519 1549.081 1548.448 1547.707 1546.871 1545.947 1545.046 1544.34 1543.969 1543.862 1543.899 1544.041 1544.24 1544.401 1544.413 1544.209 1543.822 1543.346 1542.964 1542.665 1542.425 1542.391 1542.63 1543.058 1543.457 1543.649 1543.666 1543.51 1543.237 1542.911 1542.485 1541.958 1541.329 1540.732 1540.186 1539.607 1538.954 1538.228 1537.562 1537.105 1536.835 1536.592 1536.314 1536.093 1535.901 1535.609 1535.203 1534.634 1533.935 1533.42 1533.387 1533.658 1533.777 1533.672 1533.512 1533.379 1533.198 1532.943 1532.666 1532.319 1531.907 1531.466 1530.91 1530.151 1529.283 1528.398 1527.544 1526.735 1525.969 1525.238 1524.529 1523.879 1523.374 1522.933 1522.372 1521.786 1521.228 1520.563 1519.715 1518.757 1517.903 1517.171 1516.441 1515.689 1514.905 1514.007 1513.003 1512.056 1511.136 1510.153 1509.208 1508.461 1507.927 1507.391 1506.909 1506.806 1506.972 1507.144 1507.349 1507.571 1507.764 1507.834 1507.626 1507.198 1506.727 1506.435 1506.551 1506.846 1506.976 1506.824 1506.416 1505.965 1505.564 1505.227 1504.915 1504.633 1504.549 1504.879 1505.552 1506.227 1506.851 1507.406 1507.626 1507.438 1507.133 1506.988 1507.06 1507.198 1507.232 1507.037 1506.593 1506.03 1505.496 1505.028 1504.563 1504.051 1503.5 1502.997 1502.686 1502.614 1502.619 1502.553 1502.391 1502.105 1501.767 1501.537 1501.453 1501.394 1501.276 1501.111 1500.957 1500.828 1500.692 1500.525 1500.348 1500.227 1500.187 1500.325 1500.681 1501.13 1501.57 1501.995 1502.469 1503.047 1503.709 1504.335 1504.754 1504.983 1505.085 1505.053 1505.013 1505.135 1505.408 1505.69 1505.913 1506.101 1506.281 1506.332 1506.087 1505.878 1506.07 1506.422 1506.653 1506.689 1506.61 1506.528 1506.495 1506.556 1506.722 1506.991 1507.259 1507.477 1507.812 1508.209 1508.525 1508.828 1509.143 1509.394 1509.518 1509.468 1509.344 1509.335 1509.418 1509.48 1509.507 1509.644 1509.986 1510.38 1510.746 1511.066 1511.269 1511.408 1511.563 1511.689 1511.704 1511.635 1511.482 1511.221 1510.958 1510.803 1510.691 1510.51 1510.252 1509.802 1509.139 1508.773 1508.902 1509.096 1509.154 1509.172 1509.19 1509.204 1509.226 1509.256 1509.268 1509.015
1560.312 1560.545 1560.748 1560.802 1560.758 1560.839 1561.043 1561.307 1561.664 1562.007 1562.158 1562.13 1562.028 1561.938 1561.915 1561.876 1561.697 1561.37 1561.045 1560.878 1560.788 1560.629 1560.419 1560.247 1560.256 1560.531 1560.817 1560.781 1560.328 1559.495 1558.394 1557.447 1557.011 1556.899 1556.701 1556.089 1554.967 1553.79 1553.376 1554.068 1555.362 1556.336 1556.634 1556.479 1556.249 1556.132 1556.066 1555.988 1555.917 1555.836 1555.75 1555.617 1555.273 1554.759 1554.312 1554.105 1553.967 1553.688 1553.315 1553.018 1552.937 1553.089 1553.401 1553.709 1553.841 1553.784 1553.653 1553.504 1553.383 1553.448 1553.711 1553.959 1554.009 1553.891 1553.752 1553.599 1553.315 1552.907 1552.401 1551.823 1551.279 1550.735 1550.157 1549.688 1549.574 1549.845 1550.223 1550.547 1550.758 1550.83 1550.84 1550.884 1551.017 1551.111 1551.048 1550.869 1550.546 1550.05 1549.587 1549.204 1548.735 1548.139 1547.461 1546.707 1545.864 1545.016 1544.302 1543.726 1543.245 1543.008 1543.131 1543.425 1543.703 1543.906 1543.868 1543.484 1542.948 1542.58 1542.344 1542.098 1542.046 1542.356 1542.823 1543.231 1543.498 1543.601 1543.526 1543.314 1542.979 1542.518 1541.969 1541.359 1540.776 1540.211 1539.596 1538.904 1538.192 1537.598 1537.234 1537.007 1536.779 1536.513 1536.264 1536.06 1535.78 1535.275 1534.571 1533.789 1533.062 1532.628 1532.594 1532.567 1532.441 1532.387 1532.314 1532.173 1532.022 1531.841 1531.533 1531.102 1530.658 1530.166 1529.464 1528.65 1527.832 1526.988 1526.133 1525.305 1524.511 1523.733 1523.027 1522.55 1522.256 1521.885 1521.422 1520.94 1520.349 1519.583 1518.706 1517.838 1517.02 1516.23 1515.442 1514.624 1513.733 1512.793 1511.837 1510.857 1509.921 1509.022 1508.118 1507.257 1506.441 1505.9 1505.958 1506.344 1506.686 1506.96 1507.192 1507.397 1507.475 1507.25 1506.801 1506.304 1505.983 1506.125 1506.543 1506.855 1506.814 1506.346 1505.677 1505.095 1504.842 1504.705 1504.51 1504.488 1504.755 1505.234 1505.829 1506.479 1506.997 1507.081 1506.831 1506.56 1506.428 1506.484 1506.585 1506.587 1506.418 1506.086 1505.611 1505.061 1504.537 1504.021 1503.469 1502.878 1502.363 1502.058 1501.962 1502 1501.974 1501.877 1501.74 1501.494 1501.234 1501.046 1500.875 1500.672 1500.469 1500.301 1500.11 1499.889 1499.656 1499.476 1499.412 1499.4 1499.504 1499.8 1500.2 1500.616 1501.04 1501.524 1502.118 1502.84 1503.6 1504.165 1504.423 1504.483 1504.428 1504.396 1504.577 1504.904 1505.24 1505.528 1505.753 1505.895 1505.781 1505.363 1505.108 1505.285 1505.58 1505.8 1505.914 1505.915 1505.838 1505.816 1505.947 1506.166 1506.453 1506.76 1507.051 1507.4 1507.799 1508.201 1508.581 1508.902 1509.108 1509.171 1509.083 1508.954 1508.931 1508.981 1508.989 1508.972 1509.17 1509.616 1510.039 1510.311 1510.537 1510.765 1510.972 1511.171 1511.325 1511.355 1511.298 1511.129 1510.784 1510.482 1510.432 1510.482 1510.472 1510.363 1509.971 1509.261 1508.754 1508.754 1508.927 1509 1509.014 1509.032 1509.046 1509.055 1509.059 1509.015 1508.693
1559.631 1559.882 1560.07 1560.126 1560.202 1560.395 1560.593 1560.815 1561.133 1561.426 1561.552 1561.564 1561.53 1561.517 1561.618 1561.73 1561.681 1561.426 1561.103 1560.888 1560.744 1560.563 1560.354 1560.159 1560.108 1560.338 1560.567 1560.428 1559.892 1558.971 1557.82 1556.922 1556.592 1556.651 1556.585 1556.048 1555 1553.828 1553.31 1553.84 1554.971 1555.819 1556.016 1555.845 1555.743 1555.623 1555.346 1555.081 1555.016 1555.061 1555.069 1555.02 1554.829 1554.489 1554.129 1553.899 1553.717 1553.44 1553.098 1552.767 1552.553 1552.597 1552.882 1553.253 1553.525 1553.605 1553.528 1553.362 1553.241 1553.293 1553.495 1553.723 1553.825 1553.738 1553.602 1553.499 1553.281 1552.868 1552.293 1551.658 1551.073 1550.501 1549.883 1549.3 1549.067 1549.382 1549.902 1550.289 1550.431 1550.438 1550.438 1550.491 1550.68 1550.884 1550.903 1550.724 1550.378 1549.897 1549.417 1548.979 1548.458 1547.842 1547.213 1546.585 1545.906 1545.171 1544.467 1543.779 1543.053 1542.517 1542.439 1542.702 1543.084 1543.434 1543.501 1543.163 1542.673 1542.337 1542.108 1541.874 1541.791 1542.015 1542.412 1542.829 1543.148 1543.295 1543.266 1543.084 1542.764 1542.29 1541.704 1541.109 1540.596 1540.104 1539.523 1538.864 1538.212 1537.695 1537.381 1537.139 1536.885 1536.616 1536.332 1536.065 1535.734 1535.193 1534.51 1533.8 1532.984 1532.117 1531.58 1531.283 1531.112 1531.151 1531.187 1531.111 1531.014 1530.886 1530.613 1530.189 1529.763 1529.35 1528.76 1527.994 1527.158 1526.274 1525.372 1524.5 1523.67 1522.863 1522.151 1521.695 1521.474 1521.26 1520.976 1520.629 1520.129 1519.427 1518.59 1517.731 1516.907 1516.083 1515.229 1514.369 1513.544 1512.72 1511.785 1510.755 1509.828 1508.971 1508.012 1507.048 1506.18 1505.581 1505.539 1505.797 1506.134 1506.515 1506.876 1507.176 1507.272 1507.043 1506.593 1506.093 1505.792 1505.985 1506.447 1506.772 1506.702 1506.08 1505.173 1504.443 1504.225 1504.319 1504.352 1504.455 1504.766 1505.164 1505.62 1506.166 1506.581 1506.566 1506.33 1506.111 1505.963 1505.954 1505.986 1505.937 1505.726 1505.383 1504.972 1504.529 1504.06 1503.511 1502.896 1502.261 1501.736 1501.427 1501.323 1501.369 1501.367 1501.332 1501.311 1501.142 1500.881 1500.642 1500.423 1500.178 1499.947 1499.749 1499.465 1499.117 1498.795 1498.611 1498.62 1498.685 1498.79 1499.018 1499.343 1499.695 1500.058 1500.504 1501.157 1502.001 1502.875 1503.56 1503.866 1503.885 1503.792 1503.805 1504.047 1504.393 1504.743 1505.076 1505.362 1505.452 1505.134 1504.638 1504.401 1504.467 1504.624 1504.796 1504.945 1505.021 1505.09 1505.249 1505.51 1505.789 1506.058 1506.331 1506.614 1506.931 1507.287 1507.704 1508.15 1508.549 1508.778 1508.747 1508.567 1508.407 1508.387 1508.446 1508.46 1508.466 1508.72 1509.195 1509.593 1509.753 1509.879 1510.107 1510.36 1510.607 1510.822 1510.913 1510.892 1510.782 1510.478 1510.114 1510.008 1510.09 1510.178 1510.212 1509.98 1509.385 1508.841 1508.674 1508.765 1508.835 1508.836 1508.836 1508.835 1508.827 1508.812 1508.744 1508.413
1559.016 1559.236 1559.431 1559.547 1559.763 1560.061 1560.19 1560.268 1560.515 1560.787 1560.936 1560.998 1560.998 1561.056 1561.248 1561.471 1561.566 1561.464 1561.223 1560.932 1560.681 1560.457 1560.178 1559.879 1559.793 1560.035 1560.235 1559.99 1559.355 1558.357 1557.164 1556.387 1556.306 1556.519 1556.457 1555.895 1554.875 1553.724 1553.12 1553.468 1554.41 1555.172 1555.281 1555.12 1555.213 1555.217 1554.806 1554.194 1553.866 1553.91 1554.056 1554.144 1554.051 1553.815 1553.567 1553.413 1553.295 1553.066 1552.748 1552.43 1552.223 1552.235 1552.467 1552.868 1553.231 1553.405 1553.354 1553.135 1552.978 1552.998 1553.166 1553.403 1553.571 1553.538 1553.378 1553.267 1553.11 1552.739 1552.195 1551.612 1551.059 1550.5 1549.891 1549.277 1548.927 1549.147 1549.664 1550.036 1550.148 1550.148 1550.155 1550.211 1550.375 1550.562 1550.595 1550.405 1550.106 1549.772 1549.331 1548.812 1548.202 1547.543 1546.964 1546.437 1545.887 1545.275 1544.633 1543.981 1543.234 1542.474 1542.048 1542.179 1542.627 1543.046 1543.173 1542.938 1542.532 1542.165 1541.858 1541.6 1541.459 1541.542 1541.855 1542.269 1542.587 1542.748 1542.752 1542.581 1542.271 1541.827 1541.258 1540.682 1540.237 1539.869 1539.403 1538.815 1538.24 1537.791 1537.467 1537.184 1536.892 1536.538 1536.102 1535.684 1535.332 1534.884 1534.247 1533.53 1532.767 1531.878 1531.045 1530.471 1530.166 1530.159 1530.251 1530.201 1530.066 1529.924 1529.703 1529.334 1528.926 1528.523 1527.99 1527.253 1526.396 1525.466 1524.494 1523.559 1522.696 1521.907 1521.258 1520.823 1520.595 1520.447 1520.292 1520.113 1519.778 1519.194 1518.46 1517.666 1516.85 1516.002 1515.078 1514.103 1513.229 1512.433 1511.535 1510.558 1509.72 1508.916 1508.013 1507.148 1506.392 1505.817 1505.494 1505.349 1505.531 1506.02 1506.513 1506.874 1507.001 1506.812 1506.413 1505.973 1505.73 1505.954 1506.403 1506.672 1506.582 1505.987 1505.02 1504.09 1503.608 1503.668 1503.903 1504.166 1504.547 1504.982 1505.422 1505.866 1506.121 1506.024 1505.788 1505.557 1505.378 1505.342 1505.35 1505.25 1504.964 1504.599 1504.316 1504.06 1503.655 1503.07 1502.415 1501.764 1501.201 1500.848 1500.712 1500.714 1500.758 1500.794 1500.807 1500.698 1500.467 1500.24 1500.049 1499.775 1499.49 1499.26 1498.911 1498.473 1498.075 1497.856 1497.898 1498.028 1498.159 1498.358 1498.63 1498.936 1499.289 1499.823 1500.612 1501.474 1502.297 1502.983 1503.329 1503.311 1503.141 1503.299 1503.815 1504.262 1504.585 1504.899 1505.132 1505.043 1504.552 1504.041 1503.826 1503.748 1503.715 1503.799 1503.926 1504.044 1504.317 1504.728 1505.137 1505.459 1505.709 1505.936 1506.171 1506.434 1506.721 1507.054 1507.452 1507.909 1508.222 1508.171 1507.939 1507.767 1507.762 1507.834 1507.893 1508.014 1508.345 1508.791 1509.091 1509.147 1509.214 1509.41 1509.66 1509.955 1510.279 1510.488 1510.504 1510.408 1510.143 1509.79 1509.653 1509.719 1509.828 1509.934 1509.873 1509.454 1508.878 1508.484 1508.464 1508.533 1508.535 1508.53 1508.516 1508.498 1508.467 1508.377 1508.098
1558.477 1558.556 1558.814 1559.086 1559.44 1559.769 1559.808 1559.725 1559.854 1560.156 1560.39 1560.479 1560.503 1560.598 1560.831 1561.148 1561.361 1561.359 1561.202 1560.923 1560.582 1560.213 1559.812 1559.485 1559.407 1559.584 1559.69 1559.431 1558.823 1557.814 1556.543 1555.779 1555.864 1556.216 1556.194 1555.559 1554.518 1553.457 1552.853 1553.061 1553.885 1554.577 1554.64 1554.544 1554.711 1554.686 1554.18 1553.388 1552.751 1552.639 1552.948 1553.232 1553.222 1553.064 1552.931 1552.876 1552.828 1552.676 1552.397 1552.079 1551.908 1551.957 1552.195 1552.579 1552.937 1553.12 1553.097 1552.913 1552.722 1552.701 1552.858 1553.08 1553.266 1553.287 1553.139 1553.001 1552.822 1552.47 1552.031 1551.595 1551.124 1550.583 1549.983 1549.363 1548.901 1548.915 1549.357 1549.763 1549.916 1549.948 1549.968 1549.999 1550.057 1550.121 1550.137 1550.071 1549.958 1549.772 1549.378 1548.818 1548.133 1547.409 1546.804 1546.264 1545.753 1545.248 1544.727 1544.181 1543.536 1542.717 1542.048 1542.037 1542.433 1542.779 1542.872 1542.701 1542.355 1541.944 1541.567 1541.272 1541.078 1541.026 1541.234 1541.597 1541.897 1542.093 1542.143 1541.998 1541.689 1541.278 1540.776 1540.243 1539.835 1539.542 1539.192 1538.715 1538.227 1537.813 1537.464 1537.125 1536.74 1536.267 1535.686 1535.113 1534.693 1534.298 1533.736 1533.057 1532.382 1531.661 1530.855 1530.15 1529.726 1529.619 1529.631 1529.54 1529.353 1529.103 1528.81 1528.505 1528.184 1527.772 1527.198 1526.457 1525.613 1524.662 1523.607 1522.589 1521.687 1520.933 1520.352 1519.914 1519.651 1519.553 1519.518 1519.499 1519.364 1518.957 1518.339 1517.612 1516.825 1515.975 1514.97 1513.832 1512.793 1511.964 1511.175 1510.373 1509.716 1509.054 1508.286 1507.515 1506.79 1506.193 1505.706 1505.315 1505.281 1505.679 1506.156 1506.521 1506.69 1506.544 1506.164 1505.759 1505.595 1505.855 1506.285 1506.493 1506.319 1505.795 1505.048 1504.193 1503.453 1503.198 1503.354 1503.695 1504.13 1504.58 1504.998 1505.352 1505.523 1505.411 1505.149 1504.89 1504.719 1504.695 1504.685 1504.51 1504.21 1503.969 1503.832 1503.65 1503.244 1502.649 1501.983 1501.32 1500.731 1500.302 1500.114 1500.086 1500.136 1500.188 1500.215 1500.179 1500.031 1499.89 1499.792 1499.515 1499.122 1498.761 1498.34 1497.858 1497.446 1497.255 1497.297 1497.412 1497.545 1497.738 1497.983 1498.294 1498.759 1499.455 1500.283 1501.057 1501.781 1502.439 1502.82 1502.827 1502.666 1502.848 1503.563 1504.311 1504.776 1505.02 1505.003 1504.643 1504.021 1503.495 1503.262 1503.105 1502.945 1502.887 1502.969 1503.206 1503.641 1504.18 1504.696 1505.096 1505.364 1505.575 1505.787 1505.976 1506.133 1506.338 1506.632 1507.077 1507.462 1507.473 1507.27 1507.12 1507.125 1507.22 1507.352 1507.594 1507.986 1508.393 1508.597 1508.564 1508.539 1508.684 1509.005 1509.453 1509.892 1510.155 1510.19 1510.046 1509.754 1509.441 1509.299 1509.344 1509.494 1509.681 1509.718 1509.376 1508.743 1508.176 1508.06 1508.108 1508.103 1508.105 1508.103 1508.101 1508.057 1507.927 1507.715
1558.304 1558.134 1558.257 1558.624 1559.119 1559.476 1559.502 1559.373 1559.373 1559.614 1559.868 1559.945 1559.981 1560.09 1560.363 1560.784 1561.079 1561.152 1561.004 1560.703 1560.34 1559.886 1559.433 1559.165 1559.073 1559.081 1559.014 1558.75 1558.251 1557.317 1556.067 1555.277 1555.373 1555.805 1555.829 1555.092 1553.977 1553.043 1552.618 1552.822 1553.539 1554.09 1554.109 1554.07 1554.219 1554.132 1553.567 1552.673 1551.768 1551.418 1551.761 1552.179 1552.295 1552.296 1552.317 1552.325 1552.298 1552.198 1551.959 1551.664 1551.519 1551.603 1551.867 1552.223 1552.542 1552.698 1552.693 1552.588 1552.423 1552.368 1552.509 1552.715 1552.879 1552.939 1552.879 1552.767 1552.54 1552.177 1551.829 1551.542 1551.178 1550.671 1550.075 1549.455 1548.931 1548.763 1549.029 1549.432 1549.684 1549.79 1549.83 1549.838 1549.808 1549.735 1549.706 1549.798 1549.879 1549.786 1549.419 1548.854 1548.229 1547.568 1546.882 1546.22 1545.676 1545.236 1544.848 1544.387 1543.803 1543.077 1542.41 1542.279 1542.573 1542.824 1542.769 1542.494 1542.136 1541.744 1541.333 1540.954 1540.684 1540.56 1540.689 1540.99 1541.282 1541.478 1541.478 1541.282 1540.974 1540.626 1540.234 1539.797 1539.428 1539.138 1538.825 1538.444 1538.043 1537.663 1537.301 1536.898 1536.43 1535.896 1535.277 1534.682 1534.211 1533.768 1533.213 1532.577 1531.939 1531.294 1530.593 1529.896 1529.442 1529.283 1529.155 1528.908 1528.592 1528.224 1527.834 1527.504 1527.243 1526.945 1526.467 1525.786 1524.95 1523.938 1522.786 1521.662 1520.711 1519.989 1519.44 1518.982 1518.688 1518.633 1518.718 1518.848 1518.915 1518.703 1518.19 1517.531 1516.814 1515.942 1514.788 1513.481 1512.28 1511.382 1510.74 1510.199 1509.713 1509.226 1508.712 1508.121 1507.455 1506.822 1506.243 1505.701 1505.383 1505.487 1505.865 1506.237 1506.4 1506.198 1505.739 1505.29 1505.167 1505.491 1505.864 1505.951 1505.67 1505.177 1504.638 1504.036 1503.404 1502.974 1502.922 1503.231 1503.674 1504.053 1504.346 1504.621 1504.808 1504.758 1504.53 1504.256 1504.056 1504.017 1503.986 1503.809 1503.606 1503.474 1503.369 1503.168 1502.734 1502.156 1501.512 1500.838 1500.245 1499.774 1499.528 1499.501 1499.55 1499.617 1499.696 1499.737 1499.697 1499.656 1499.548 1499.183 1498.667 1498.159 1497.665 1497.215 1496.945 1496.881 1496.861 1496.872 1496.975 1497.106 1497.307 1497.692 1498.312 1499.086 1499.877 1500.608 1501.285 1501.902 1502.272 1502.304 1502.229 1502.408 1503.097 1504.057 1504.78 1504.985 1504.74 1504.192 1503.495 1502.941 1502.642 1502.438 1502.232 1502.076 1502.12 1502.474 1503.029 1503.636 1504.206 1504.647 1504.984 1505.254 1505.451 1505.533 1505.523 1505.577 1505.8 1506.21 1506.536 1506.552 1506.432 1506.419 1506.554 1506.733 1506.934 1507.225 1507.616 1507.966 1508.096 1508.026 1507.928 1508.01 1508.429 1509.04 1509.559 1509.807 1509.822 1509.683 1509.375 1509.025 1508.843 1508.898 1509.115 1509.368 1509.444 1509.114 1508.513 1507.996 1507.781 1507.692 1507.626 1507.616 1507.624 1507.634 1507.59 1507.452 1507.282
1558.378 1558.07 1557.917 1558.025 1558.517 1559.095 1559.274 1559.16 1559.071 1559.161 1559.297 1559.33 1559.394 1559.558 1559.872 1560.27 1560.557 1560.687 1560.564 1560.268 1559.946 1559.554 1559.132 1558.873 1558.763 1558.672 1558.513 1558.242 1557.748 1556.878 1555.782 1554.999 1554.999 1555.377 1555.346 1554.534 1553.34 1552.321 1551.918 1552.335 1553.114 1553.589 1553.54 1553.426 1553.57 1553.55 1552.974 1551.952 1550.881 1550.36 1550.617 1551.045 1551.28 1551.464 1551.632 1551.709 1551.706 1551.604 1551.393 1551.187 1551.089 1551.176 1551.431 1551.767 1552.073 1552.226 1552.216 1552.108 1551.975 1551.942 1552.087 1552.311 1552.471 1552.548 1552.569 1552.494 1552.264 1551.919 1551.613 1551.417 1551.188 1550.754 1550.165 1549.538 1548.997 1548.738 1548.801 1549.087 1549.374 1549.568 1549.664 1549.657 1549.573 1549.444 1549.411 1549.537 1549.646 1549.578 1549.253 1548.735 1548.214 1547.691 1547.072 1546.443 1545.911 1545.467 1545.085 1544.646 1544.099 1543.514 1542.991 1542.781 1542.895 1543.012 1542.827 1542.458 1542.076 1541.667 1541.204 1540.773 1540.468 1540.295 1540.314 1540.507 1540.736 1540.836 1540.701 1540.419 1540.108 1539.796 1539.477 1539.128 1538.779 1538.484 1538.232 1537.92 1537.571 1537.237 1536.892 1536.51 1536.052 1535.51 1534.929 1534.404 1533.959 1533.472 1532.843 1532.158 1531.51 1530.887 1530.24 1529.567 1529.089 1528.92 1528.726 1528.361 1527.938 1527.49 1527.003 1526.509 1526.18 1526.007 1525.688 1525.074 1524.24 1523.215 1522.024 1520.859 1519.895 1519.119 1518.499 1517.987 1517.654 1517.645 1517.81 1518.047 1518.279 1518.269 1517.94 1517.415 1516.767 1515.897 1514.704 1513.376 1512.113 1511.001 1510.182 1509.739 1509.457 1509.137 1508.78 1508.271 1507.647 1507.028 1506.364 1505.684 1505.19 1505.131 1505.468 1505.856 1505.989 1505.713 1505.225 1504.792 1504.673 1504.935 1505.156 1505.144 1504.834 1504.322 1503.817 1503.394 1503.078 1502.776 1502.597 1502.796 1503.178 1503.465 1503.636 1503.84 1504.038 1504.048 1503.9 1503.694 1503.509 1503.386 1503.316 1503.252 1503.168 1503.063 1502.902 1502.608 1502.143 1501.575 1500.954 1500.343 1499.814 1499.35 1499.047 1498.98 1499.024 1499.141 1499.291 1499.392 1499.427 1499.361 1499.095 1498.638 1498.072 1497.516 1497.061 1496.732 1496.631 1496.637 1496.54 1496.471 1496.573 1496.68 1496.882 1497.312 1497.9 1498.613 1499.395 1500.135 1500.787 1501.392 1501.783 1501.783 1501.646 1501.742 1502.343 1503.342 1504.226 1504.516 1504.251 1503.658 1502.906 1502.232 1501.823 1501.619 1501.485 1501.383 1501.433 1501.805 1502.439 1503.142 1503.712 1504.122 1504.504 1504.85 1505.041 1505.008 1504.89 1504.904 1505.09 1505.363 1505.514 1505.505 1505.512 1505.671 1505.924 1506.172 1506.433 1506.76 1507.14 1507.456 1507.576 1507.517 1507.434 1507.551 1508.019 1508.669 1509.217 1509.442 1509.407 1509.289 1509.012 1508.605 1508.309 1508.295 1508.518 1508.804 1508.932 1508.678 1508.204 1507.803 1507.535 1507.342 1507.212 1507.144 1507.123 1507.128 1507.072 1506.897 1506.751
1558.352 1558.068 1557.754 1557.538 1557.914 1558.673 1559.045 1558.977 1558.825 1558.746 1558.701 1558.665 1558.736 1558.911 1559.199 1559.533 1559.817 1559.998 1559.934 1559.671 1559.376 1559.062 1558.706 1558.432 1558.291 1558.178 1558.018 1557.759 1557.283 1556.51 1555.553 1554.783 1554.633 1554.853 1554.719 1553.903 1552.708 1551.565 1551.133 1551.795 1552.704 1553.163 1553.087 1552.862 1552.937 1552.975 1552.428 1551.326 1550.186 1549.546 1549.674 1550.115 1550.445 1550.699 1550.902 1551.045 1551.075 1550.931 1550.71 1550.589 1550.596 1550.708 1550.944 1551.273 1551.591 1551.763 1551.733 1551.598 1551.474 1551.456 1551.612 1551.857 1552.036 1552.102 1552.09 1552.008 1551.84 1551.584 1551.327 1551.182 1551.083 1550.788 1550.231 1549.565 1548.955 1548.585 1548.562 1548.828 1549.168 1549.422 1549.509 1549.45 1549.312 1549.146 1549.096 1549.148 1549.141 1548.984 1548.639 1548.185 1547.793 1547.414 1546.963 1546.5 1546.061 1545.678 1545.292 1544.847 1544.396 1543.975 1543.619 1543.412 1543.332 1543.212 1542.925 1542.549 1542.156 1541.714 1541.242 1540.811 1540.44 1540.143 1540.008 1540.083 1540.19 1540.107 1539.849 1539.539 1539.227 1538.928 1538.639 1538.318 1537.998 1537.765 1537.575 1537.311 1537.003 1536.679 1536.322 1535.973 1535.611 1535.155 1534.641 1534.186 1533.782 1533.271 1532.567 1531.845 1531.263 1530.713 1530.087 1529.425 1528.891 1528.572 1528.25 1527.818 1527.347 1526.875 1526.342 1525.7 1525.18 1524.904 1524.654 1524.115 1523.31 1522.356 1521.239 1520.155 1519.244 1518.37 1517.529 1516.852 1516.469 1516.549 1516.846 1517.174 1517.476 1517.564 1517.393 1517.039 1516.489 1515.725 1514.74 1513.561 1512.319 1511.082 1509.97 1509.227 1508.902 1508.764 1508.493 1507.951 1507.366 1506.825 1506.141 1505.391 1504.794 1504.571 1504.783 1505.17 1505.403 1505.252 1504.846 1504.461 1504.33 1504.465 1504.515 1504.398 1504.039 1503.442 1502.945 1502.715 1502.675 1502.522 1502.272 1502.316 1502.623 1502.869 1502.962 1503.077 1503.25 1503.291 1503.216 1503.145 1503.065 1502.908 1502.78 1502.79 1502.782 1502.649 1502.394 1502.04 1501.608 1501.077 1500.471 1499.901 1499.422 1498.976 1498.626 1498.49 1498.546 1498.741 1498.957 1499.098 1499.123 1498.945 1498.547 1498.03 1497.46 1496.974 1496.68 1496.486 1496.422 1496.412 1496.331 1496.293 1496.403 1496.556 1496.785 1497.151 1497.615 1498.2 1498.938 1499.697 1500.343 1500.971 1501.433 1501.483 1501.282 1501.175 1501.543 1502.464 1503.419 1503.828 1503.629 1503.051 1502.273 1501.493 1500.98 1500.785 1500.715 1500.686 1500.803 1501.207 1501.9 1502.658 1503.197 1503.57 1503.942 1504.279 1504.429 1504.347 1504.228 1504.244 1504.362 1504.489 1504.543 1504.592 1504.756 1505.047 1505.354 1505.624 1505.925 1506.287 1506.645 1506.909 1507.012 1506.973 1506.927 1507.097 1507.574 1508.183 1508.73 1508.997 1508.963 1508.837 1508.586 1508.189 1507.842 1507.741 1507.903 1508.161 1508.332 1508.237 1507.907 1507.546 1507.256 1507.033 1506.87 1506.754 1506.671 1506.624 1506.515 1506.282 1506.147
1558.246 1558.034 1557.595 1557.196 1557.529 1558.347 1558.778 1558.749 1558.59 1558.385 1558.127 1557.953 1557.964 1558.097 1558.349 1558.649 1558.934 1559.159 1559.177 1558.985 1558.721 1558.421 1558.082 1557.812 1557.688 1557.622 1557.476 1557.236 1556.857 1556.206 1555.341 1554.571 1554.248 1554.24 1553.986 1553.202 1552.079 1550.976 1550.576 1551.317 1552.343 1552.805 1552.713 1552.45 1552.465 1552.415 1551.732 1550.636 1549.576 1548.881 1548.842 1549.282 1549.74 1550.001 1550.156 1550.345 1550.36 1550.16 1549.948 1549.89 1550.043 1550.267 1550.562 1550.95 1551.283 1551.425 1551.339 1551.141 1550.984 1550.948 1551.088 1551.313 1551.433 1551.434 1551.382 1551.314 1551.215 1551.077 1550.929 1550.833 1550.785 1550.574 1550.02 1549.317 1548.71 1548.338 1548.32 1548.636 1549.048 1549.31 1549.347 1549.268 1549.03 1548.7 1548.546 1548.507 1548.391 1548.116 1547.741 1547.392 1547.096 1546.759 1546.405 1546.126 1545.904 1545.697 1545.403 1545.035 1544.687 1544.36 1544.06 1543.814 1543.573 1543.293 1542.97 1542.628 1542.276 1541.89 1541.477 1541.038 1540.578 1540.102 1539.745 1539.668 1539.656 1539.462 1539.169 1538.879 1538.594 1538.318 1538.069 1537.81 1537.52 1537.25 1537.009 1536.749 1536.454 1536.127 1535.823 1535.58 1535.295 1534.867 1534.394 1533.999 1533.61 1533.058 1532.345 1531.709 1531.236 1530.714 1530.058 1529.378 1528.772 1528.24 1527.7 1527.167 1526.693 1526.239 1525.641 1524.869 1524.14 1523.662 1523.386 1522.943 1522.253 1521.413 1520.424 1519.481 1518.63 1517.658 1516.589 1515.785 1515.383 1515.434 1515.843 1516.325 1516.65 1516.745 1516.675 1516.486 1516.123 1515.562 1514.814 1513.811 1512.619 1511.373 1510.137 1509.057 1508.366 1508.11 1507.942 1507.507 1507.034 1506.585 1505.924 1505.188 1504.587 1504.228 1504.206 1504.436 1504.693 1504.755 1504.553 1504.249 1504.087 1504.072 1503.96 1503.672 1503.194 1502.58 1502.168 1502.114 1502.201 1502.128 1501.895 1501.822 1501.985 1502.2 1502.316 1502.382 1502.484 1502.541 1502.55 1502.576 1502.589 1502.486 1502.339 1502.37 1502.388 1502.264 1502.032 1501.723 1501.369 1500.883 1500.263 1499.614 1499.057 1498.625 1498.28 1498.109 1498.136 1498.32 1498.576 1498.75 1498.742 1498.482 1498.025 1497.451 1496.87 1496.491 1496.358 1496.288 1496.225 1496.187 1496.176 1496.25 1496.422 1496.617 1496.828 1497.09 1497.427 1497.942 1498.705 1499.507 1500.2 1500.753 1501.133 1501.239 1501.028 1500.713 1500.818 1501.631 1502.619 1503.109 1502.944 1502.387 1501.65 1500.881 1500.288 1499.988 1499.901 1499.957 1500.205 1500.677 1501.344 1502.049 1502.584 1502.979 1503.302 1503.528 1503.65 1503.563 1503.432 1503.471 1503.534 1503.576 1503.654 1503.825 1504.132 1504.51 1504.867 1505.18 1505.511 1505.855 1506.11 1506.259 1506.335 1506.346 1506.356 1506.58 1507.077 1507.655 1508.189 1508.515 1508.533 1508.383 1508.092 1507.714 1507.409 1507.29 1507.404 1507.606 1507.75 1507.753 1507.555 1507.245 1506.968 1506.738 1506.555 1506.418 1506.3 1506.185 1506.008 1505.771 1505.641
1557.962 1557.865 1557.462 1557.122 1557.456 1558.131 1558.426 1558.361 1558.204 1557.965 1557.612 1557.312 1557.216 1557.308 1557.507 1557.713 1557.963 1558.247 1558.4 1558.313 1558.059 1557.705 1557.318 1557.092 1557.134 1557.222 1557.138 1556.926 1556.59 1556.01 1555.192 1554.362 1553.806 1553.527 1553.164 1552.452 1551.475 1550.559 1550.182 1550.766 1551.781 1552.298 1552.182 1551.933 1551.926 1551.727 1551.019 1550.088 1549.109 1548.329 1548.131 1548.489 1549.026 1549.441 1549.687 1549.809 1549.695 1549.434 1549.23 1549.261 1549.561 1549.899 1550.253 1550.679 1551.02 1551.114 1550.977 1550.762 1550.613 1550.518 1550.597 1550.793 1550.851 1550.773 1550.686 1550.619 1550.531 1550.449 1550.389 1550.355 1550.324 1550.108 1549.569 1548.932 1548.394 1548.09 1548.1 1548.415 1548.844 1549.117 1549.153 1549.076 1548.747 1548.223 1547.863 1547.698 1547.509 1547.198 1546.9 1546.669 1546.399 1546.044 1545.704 1545.538 1545.541 1545.459 1545.196 1544.873 1544.584 1544.367 1544.183 1543.936 1543.616 1543.283 1542.95 1542.623 1542.323 1542.019 1541.627 1541.132 1540.594 1540.026 1539.526 1539.275 1539.118 1538.849 1538.547 1538.267 1537.991 1537.76 1537.629 1537.475 1537.135 1536.723 1536.431 1536.206 1535.952 1535.722 1535.542 1535.379 1535.132 1534.718 1534.251 1533.849 1533.439 1532.868 1532.22 1531.674 1531.197 1530.627 1529.964 1529.292 1528.609 1527.874 1527.145 1526.551 1526.102 1525.586 1524.852 1523.995 1523.158 1522.48 1522.016 1521.583 1521.053 1520.426 1519.659 1518.839 1518.02 1517.086 1516.003 1515.067 1514.549 1514.419 1514.703 1515.262 1515.728 1515.904 1515.903 1515.846 1515.7 1515.378 1514.844 1514.042 1512.929 1511.67 1510.406 1509.207 1508.227 1507.594 1507.245 1506.983 1506.72 1506.345 1505.73 1505.063 1504.53 1504.152 1503.961 1503.99 1504.149 1504.266 1504.22 1504.059 1503.911 1503.758 1503.437 1502.956 1502.358 1501.783 1501.48 1501.5 1501.64 1501.654 1501.507 1501.393 1501.385 1501.444 1501.523 1501.617 1501.736 1501.853 1501.946 1501.991 1502.024 1502.031 1501.968 1501.999 1501.994 1501.907 1501.792 1501.541 1501.208 1500.768 1500.131 1499.448 1498.904 1498.492 1498.17 1497.973 1497.904 1497.984 1498.188 1498.353 1498.288 1497.886 1497.32 1496.737 1496.273 1496.066 1496.03 1496.025 1496.01 1495.999 1496.05 1496.2 1496.418 1496.606 1496.747 1496.887 1497.154 1497.798 1498.668 1499.429 1500.09 1500.6 1500.869 1500.935 1500.736 1500.33 1500.271 1500.979 1501.903 1502.374 1502.196 1501.633 1500.92 1500.169 1499.56 1499.215 1499.12 1499.265 1499.596 1500.084 1500.71 1501.351 1501.896 1502.31 1502.584 1502.748 1502.828 1502.677 1502.502 1502.618 1502.775 1502.847 1502.999 1503.309 1503.716 1504.114 1504.459 1504.763 1505.082 1505.381 1505.567 1505.645 1505.687 1505.705 1505.738 1505.999 1506.567 1507.18 1507.698 1508.016 1508.055 1507.908 1507.605 1507.251 1506.982 1506.851 1506.901 1507.025 1507.137 1507.18 1507.062 1506.841 1506.619 1506.422 1506.24 1506.072 1505.884 1505.67 1505.45 1505.269 1505.13
1557.543 1557.592 1557.448 1557.301 1557.504 1557.849 1557.917 1557.782 1557.618 1557.398 1557.072 1556.727 1556.54 1556.561 1556.648 1556.749 1556.982 1557.304 1557.573 1557.622 1557.393 1557.027 1556.63 1556.4 1556.519 1556.697 1556.708 1556.594 1556.336 1555.838 1555.045 1554.154 1553.395 1552.868 1552.43 1551.792 1551.013 1550.34 1549.992 1550.279 1551.063 1551.684 1551.715 1551.506 1551.385 1551.018 1550.356 1549.613 1548.78 1548.023 1547.721 1547.927 1548.432 1548.923 1549.246 1549.353 1549.185 1548.904 1548.739 1548.822 1549.123 1549.546 1549.974 1550.388 1550.723 1550.823 1550.703 1550.517 1550.358 1550.216 1550.278 1550.436 1550.408 1550.234 1550.073 1549.984 1549.932 1549.89 1549.861 1549.845 1549.81 1549.585 1549.155 1548.707 1548.175 1547.827 1547.943 1548.292 1548.632 1548.852 1548.875 1548.736 1548.358 1547.768 1547.225 1546.887 1546.637 1546.396 1546.214 1546.043 1545.78 1545.417 1545.063 1544.882 1544.916 1544.895 1544.643 1544.31 1544.106 1544.103 1544.08 1543.864 1543.548 1543.225 1542.854 1542.425 1542.114 1541.901 1541.546 1541 1540.388 1539.766 1539.198 1538.818 1538.539 1538.179 1537.8 1537.497 1537.276 1537.19 1537.207 1537.145 1536.813 1536.328 1535.959 1535.73 1535.533 1535.366 1535.231 1535.117 1534.981 1534.694 1534.261 1533.8 1533.324 1532.761 1532.183 1531.648 1531.07 1530.433 1529.788 1529.161 1528.475 1527.633 1526.757 1526.075 1525.579 1524.987 1524.239 1523.454 1522.63 1521.735 1520.901 1520.278 1519.845 1519.476 1518.947 1518.208 1517.39 1516.556 1515.65 1514.637 1513.777 1513.351 1513.475 1514.03 1514.643 1515.02 1515.146 1515.177 1515.176 1515.04 1514.672 1514.06 1513.127 1511.931 1510.693 1509.515 1508.451 1507.561 1506.924 1506.559 1506.338 1506.058 1505.568 1504.991 1504.507 1504.13 1503.838 1503.708 1503.771 1503.863 1503.894 1503.849 1503.741 1503.538 1503.13 1502.497 1501.723 1501.075 1500.793 1500.849 1501.026 1501.118 1501.039 1500.901 1500.832 1500.848 1500.888 1500.963 1501.09 1501.245 1501.339 1501.362 1501.446 1501.582 1501.6 1501.566 1501.566 1501.562 1501.472 1501.215 1500.892 1500.533 1500.03 1499.466 1498.961 1498.516 1498.159 1497.903 1497.751 1497.735 1497.833 1497.939 1497.804 1497.306 1496.662 1496.102 1495.794 1495.72 1495.713 1495.72 1495.768 1495.83 1495.904 1496.052 1496.294 1496.476 1496.554 1496.65 1496.975 1497.709 1498.576 1499.247 1499.8 1500.234 1500.448 1500.515 1500.342 1499.93 1499.804 1500.388 1501.224 1501.653 1501.382 1500.774 1500.084 1499.317 1498.674 1498.375 1498.372 1498.578 1498.893 1499.34 1499.929 1500.545 1501.125 1501.569 1501.848 1502.016 1502.021 1501.766 1501.552 1501.771 1502.204 1502.55 1502.889 1503.275 1503.635 1503.945 1504.209 1504.446 1504.695 1504.904 1505.041 1505.135 1505.188 1505.18 1505.2 1505.528 1506.141 1506.765 1507.258 1507.496 1507.487 1507.33 1507.064 1506.782 1506.547 1506.374 1506.318 1506.374 1506.492 1506.593 1506.563 1506.402 1506.172 1505.945 1505.736 1505.529 1505.296 1505.032 1504.799 1504.667 1504.557
1557.082 1557.196 1557.193 1557.14 1557.284 1557.407 1557.308 1557.133 1556.958 1556.739 1556.44 1556.141 1555.958 1555.906 1555.906 1555.98 1556.233 1556.568 1556.849 1556.98 1556.841 1556.501 1556.071 1555.764 1555.792 1555.958 1556.051 1556.045 1555.911 1555.548 1554.845 1553.961 1553.112 1552.41 1551.852 1551.292 1550.753 1550.285 1549.956 1549.987 1550.499 1551.137 1551.321 1551.143 1550.903 1550.457 1549.816 1549.15 1548.472 1547.831 1547.463 1547.515 1547.923 1548.335 1548.641 1548.818 1548.727 1548.5 1548.375 1548.388 1548.611 1549.099 1549.579 1549.982 1550.359 1550.587 1550.57 1550.372 1550.143 1549.989 1550.043 1550.119 1549.979 1549.731 1549.524 1549.442 1549.466 1549.479 1549.443 1549.384 1549.319 1549.184 1549.013 1548.684 1548.113 1547.765 1547.894 1548.173 1548.385 1548.509 1548.502 1548.321 1547.921 1547.324 1546.677 1546.174 1545.895 1545.737 1545.598 1545.441 1545.188 1544.821 1544.419 1544.16 1544.185 1544.196 1543.96 1543.666 1543.55 1543.664 1543.736 1543.603 1543.343 1543.017 1542.558 1541.999 1541.661 1541.541 1541.272 1540.712 1540.038 1539.379 1538.771 1538.295 1537.932 1537.515 1537.069 1536.764 1536.675 1536.723 1536.788 1536.772 1536.545 1536.103 1535.655 1535.352 1535.14 1534.958 1534.822 1534.751 1534.689 1534.53 1534.208 1533.754 1533.241 1532.693 1532.13 1531.536 1530.875 1530.203 1529.573 1529.002 1528.378 1527.512 1526.489 1525.668 1525.173 1524.678 1524.018 1523.258 1522.349 1521.285 1520.217 1519.362 1518.89 1518.663 1518.272 1517.579 1516.81 1516.128 1515.416 1514.437 1513.308 1512.482 1512.344 1512.817 1513.454 1513.943 1514.227 1514.392 1514.457 1514.374 1514.125 1513.738 1513.106 1512.131 1510.988 1509.86 1508.78 1507.802 1506.997 1506.387 1506.037 1505.77 1505.374 1504.894 1504.441 1504.054 1503.728 1503.507 1503.44 1503.457 1503.516 1503.566 1503.563 1503.433 1503.024 1502.314 1501.493 1500.753 1500.321 1500.271 1500.424 1500.5 1500.39 1500.312 1500.381 1500.45 1500.465 1500.491 1500.568 1500.663 1500.692 1500.727 1500.89 1501.058 1501.05 1501.017 1501.103 1501.178 1501.089 1500.878 1500.644 1500.383 1500.023 1499.531 1498.996 1498.546 1498.178 1497.854 1497.604 1497.478 1497.477 1497.512 1497.309 1496.781 1496.142 1495.641 1495.458 1495.465 1495.48 1495.492 1495.546 1495.575 1495.609 1495.83 1496.123 1496.285 1496.372 1496.534 1496.888 1497.507 1498.253 1498.924 1499.423 1499.714 1499.89 1500.02 1499.871 1499.466 1499.35 1499.87 1500.629 1501.031 1500.692 1499.95 1499.217 1498.424 1497.717 1497.444 1497.539 1497.768 1498.047 1498.467 1499.065 1499.707 1500.285 1500.738 1501.071 1501.253 1501.236 1501.107 1501.132 1501.582 1502.216 1502.731 1503.155 1503.524 1503.791 1503.979 1504.14 1504.283 1504.42 1504.53 1504.613 1504.696 1504.73 1504.665 1504.698 1505.115 1505.761 1506.364 1506.771 1506.889 1506.808 1506.658 1506.476 1506.283 1506.069 1505.858 1505.707 1505.66 1505.744 1505.9 1505.969 1505.828 1505.561 1505.284 1505.028 1504.793 1504.561 1504.317 1504.107 1503.999 1503.941
1556.611 1556.716 1556.724 1556.651 1556.75 1556.804 1556.671 1556.495 1556.308 1556.088 1555.82 1555.578 1555.466 1555.434 1555.426 1555.49 1555.695 1555.965 1556.203 1556.364 1556.338 1556.069 1555.647 1555.276 1555.148 1555.231 1555.287 1555.222 1555.163 1555.003 1554.513 1553.749 1552.9 1552.072 1551.354 1550.815 1550.383 1550.049 1549.787 1549.699 1550.048 1550.682 1550.912 1550.618 1550.246 1549.814 1549.249 1548.69 1548.161 1547.647 1547.249 1547.129 1547.367 1547.687 1547.973 1548.221 1548.273 1548.114 1547.943 1547.881 1548.089 1548.566 1549.047 1549.472 1549.917 1550.281 1550.369 1550.183 1549.92 1549.773 1549.805 1549.823 1549.632 1549.278 1548.993 1548.972 1549.116 1549.189 1549.147 1549.07 1549.043 1549.085 1549.092 1548.814 1548.289 1547.929 1547.911 1547.998 1548.037 1548.018 1547.932 1547.762 1547.376 1546.784 1546.123 1545.557 1545.259 1545.119 1544.987 1544.836 1544.597 1544.271 1543.942 1543.7 1543.623 1543.568 1543.406 1543.221 1543.135 1543.184 1543.217 1543.153 1542.999 1542.708 1542.203 1541.622 1541.286 1541.208 1541.013 1540.52 1539.895 1539.241 1538.55 1537.903 1537.403 1536.994 1536.594 1536.291 1536.233 1536.306 1536.352 1536.317 1536.154 1535.8 1535.318 1534.94 1534.704 1534.531 1534.4 1534.31 1534.227 1534.127 1533.955 1533.629 1533.131 1532.503 1531.825 1531.185 1530.566 1529.946 1529.364 1528.83 1528.229 1527.355 1526.242 1525.304 1524.797 1524.434 1523.898 1523.071 1522.025 1520.904 1519.791 1518.862 1518.331 1518.041 1517.656 1517.073 1516.448 1515.889 1515.268 1514.353 1513.172 1512.035 1511.419 1511.605 1512.176 1512.687 1513.058 1513.318 1513.46 1513.438 1513.288 1513.085 1512.724 1512.064 1511.183 1510.175 1509.104 1508.049 1507.082 1506.312 1505.837 1505.479 1505.046 1504.583 1504.15 1503.772 1503.462 1503.21 1503.038 1502.976 1503.03 1503.182 1503.371 1503.392 1503.081 1502.443 1501.675 1500.936 1500.305 1499.914 1499.867 1499.878 1499.796 1499.857 1500.026 1500.095 1500.092 1500.09 1500.093 1500.072 1500.034 1500.081 1500.271 1500.444 1500.444 1500.456 1500.612 1500.745 1500.688 1500.528 1500.379 1500.212 1499.925 1499.476 1498.99 1498.56 1498.135 1497.72 1497.401 1497.206 1497.122 1497.078 1496.817 1496.325 1495.83 1495.485 1495.348 1495.341 1495.39 1495.408 1495.407 1495.405 1495.432 1495.611 1495.857 1496.025 1496.172 1496.405 1496.793 1497.34 1497.943 1498.516 1498.94 1499.157 1499.35 1499.531 1499.361 1498.931 1498.863 1499.375 1500.057 1500.488 1500.268 1499.458 1498.51 1497.561 1496.811 1496.565 1496.688 1496.906 1497.216 1497.721 1498.331 1498.91 1499.417 1499.859 1500.227 1500.449 1500.643 1500.923 1501.294 1501.913 1502.594 1503.116 1503.505 1503.794 1503.958 1504.015 1504.027 1504.051 1504.098 1504.125 1504.138 1504.181 1504.162 1504.044 1504.157 1504.653 1505.295 1505.837 1506.102 1506.127 1506.03 1505.9 1505.779 1505.663 1505.505 1505.286 1505.056 1504.911 1504.943 1505.11 1505.198 1505.05 1504.787 1504.533 1504.293 1504.058 1503.818 1503.568 1503.355 1503.27 1503.283
1556.169 1556.249 1556.236 1556.1 1556.089 1556.103 1555.986 1555.801 1555.585 1555.392 1555.209 1555.027 1554.96 1554.974 1554.968 1554.989 1555.124 1555.336 1555.549 1555.727 1555.815 1555.684 1555.314 1554.888 1554.611 1554.552 1554.507 1554.377 1554.334 1554.282 1553.978 1553.382 1552.605 1551.747 1550.894 1550.219 1549.719 1549.425 1549.241 1549.143 1549.44 1550.138 1550.483 1550.125 1549.615 1549.204 1548.753 1548.268 1547.734 1547.16 1546.754 1546.624 1546.754 1547.034 1547.374 1547.705 1547.854 1547.725 1547.524 1547.468 1547.616 1547.963 1548.46 1548.978 1549.474 1549.857 1550.018 1549.944 1549.738 1549.635 1549.688 1549.703 1549.502 1549.026 1548.556 1548.581 1548.857 1548.961 1548.946 1548.932 1548.986 1549.134 1549.2 1548.997 1548.583 1548.171 1547.908 1547.696 1547.549 1547.438 1547.271 1547.069 1546.708 1546.086 1545.401 1544.915 1544.671 1544.537 1544.416 1544.283 1544.082 1543.824 1543.598 1543.416 1543.261 1543.135 1542.992 1542.793 1542.604 1542.521 1542.493 1542.462 1542.416 1542.268 1541.918 1541.468 1541.172 1541.05 1540.808 1540.346 1539.799 1539.208 1538.505 1537.761 1537.162 1536.713 1536.303 1535.934 1535.765 1535.827 1535.889 1535.823 1535.66 1535.358 1534.897 1534.451 1534.166 1533.967 1533.771 1533.663 1533.632 1533.59 1533.508 1533.283 1532.778 1532.044 1531.314 1530.713 1530.146 1529.543 1528.966 1528.419 1527.835 1527.066 1526.01 1524.983 1524.357 1523.97 1523.509 1522.754 1521.696 1520.551 1519.499 1518.697 1518.144 1517.685 1517.245 1516.789 1516.281 1515.762 1515.169 1514.261 1513.018 1511.688 1510.701 1510.518 1510.897 1511.367 1511.752 1512.045 1512.286 1512.41 1512.381 1512.3 1512.128 1511.682 1511.033 1510.236 1509.264 1508.232 1507.234 1506.358 1505.704 1505.146 1504.605 1504.124 1503.704 1503.339 1503.025 1502.759 1502.559 1502.457 1502.514 1502.767 1503.127 1503.306 1503.093 1502.502 1501.71 1500.93 1500.243 1499.666 1499.399 1499.347 1499.359 1499.502 1499.657 1499.715 1499.721 1499.706 1499.652 1499.543 1499.423 1499.411 1499.59 1499.801 1499.882 1499.954 1500.131 1500.277 1500.282 1500.208 1500.129 1499.983 1499.648 1499.19 1498.736 1498.274 1497.802 1497.411 1497.136 1496.901 1496.706 1496.604 1496.47 1496.146 1495.789 1495.542 1495.369 1495.31 1495.346 1495.34 1495.299 1495.314 1495.361 1495.451 1495.598 1495.729 1495.869 1496.179 1496.651 1497.181 1497.681 1498.087 1498.416 1498.681 1498.926 1499.052 1498.835 1498.416 1498.35 1498.817 1499.451 1499.963 1499.976 1499.234 1498.149 1497.053 1496.201 1495.927 1496.079 1496.344 1496.699 1497.222 1497.767 1498.196 1498.582 1498.996 1499.369 1499.62 1499.983 1500.646 1501.37 1502.094 1502.808 1503.356 1503.714 1503.934 1504.012 1503.972 1503.851 1503.756 1503.769 1503.742 1503.661 1503.619 1503.5 1503.329 1503.52 1504.055 1504.672 1505.195 1505.42 1505.406 1505.276 1505.108 1504.985 1504.935 1504.864 1504.675 1504.399 1504.18 1504.168 1504.318 1504.363 1504.195 1503.982 1503.812 1503.618 1503.369 1503.095 1502.823 1502.581 1502.479 1502.57
1555.635 1555.646 1555.618 1555.481 1555.406 1555.364 1555.211 1554.988 1554.776 1554.635 1554.531 1554.437 1554.426 1554.49 1554.545 1554.566 1554.627 1554.752 1554.914 1555.1 1555.256 1555.243 1554.983 1554.589 1554.272 1554.081 1553.906 1553.765 1553.702 1553.616 1553.374 1552.912 1552.238 1551.435 1550.501 1549.61 1548.942 1548.593 1548.432 1548.387 1548.731 1549.5 1549.985 1549.711 1549.167 1548.756 1548.324 1547.808 1547.242 1546.628 1546.165 1546.042 1546.189 1546.508 1546.929 1547.31 1547.453 1547.31 1547.129 1547.119 1547.21 1547.402 1547.885 1548.529 1549.063 1549.414 1549.624 1549.656 1549.545 1549.516 1549.614 1549.652 1549.479 1549.041 1548.547 1548.478 1548.694 1548.797 1548.84 1548.911 1549.016 1549.174 1549.265 1549.127 1548.81 1548.396 1547.936 1547.446 1547.069 1546.851 1546.64 1546.389 1546.013 1545.404 1544.775 1544.363 1544.138 1544.003 1543.891 1543.771 1543.621 1543.433 1543.245 1543.082 1542.914 1542.717 1542.495 1542.226 1541.917 1541.664 1541.537 1541.52 1541.598 1541.708 1541.649 1541.382 1541.076 1540.826 1540.537 1540.103 1539.597 1539.06 1538.407 1537.673 1537.013 1536.465 1536.01 1535.625 1535.382 1535.377 1535.419 1535.332 1535.133 1534.844 1534.419 1533.926 1533.571 1533.317 1532.971 1532.694 1532.644 1532.687 1532.687 1532.55 1532.112 1531.428 1530.79 1530.253 1529.669 1529.009 1528.393 1527.827 1527.253 1526.619 1525.762 1524.756 1524.016 1523.518 1523.015 1522.361 1521.416 1520.264 1519.218 1518.497 1517.941 1517.396 1516.936 1516.593 1516.206 1515.711 1515.037 1514.106 1512.906 1511.525 1510.305 1509.702 1509.742 1510.065 1510.387 1510.669 1510.971 1511.254 1511.372 1511.388 1511.382 1511.172 1510.725 1510.109 1509.257 1508.3 1507.381 1506.48 1505.599 1504.823 1504.215 1503.706 1503.232 1502.834 1502.549 1502.318 1502.116 1501.966 1502.017 1502.358 1502.776 1502.947 1502.729 1502.19 1501.401 1500.545 1499.857 1499.335 1499.064 1498.976 1498.953 1499.037 1499.153 1499.222 1499.25 1499.235 1499.134 1498.942 1498.715 1498.647 1498.856 1499.074 1499.187 1499.325 1499.514 1499.675 1499.798 1499.842 1499.765 1499.523 1499.077 1498.579 1498.157 1497.745 1497.344 1497.002 1496.713 1496.433 1496.163 1495.984 1495.946 1495.886 1495.698 1495.461 1495.297 1495.27 1495.295 1495.268 1495.23 1495.244 1495.262 1495.303 1495.398 1495.495 1495.642 1496.009 1496.501 1496.99 1497.431 1497.767 1498.049 1498.319 1498.541 1498.583 1498.331 1497.926 1497.838 1498.233 1498.827 1499.409 1499.623 1499.03 1497.962 1496.848 1496.007 1495.78 1495.947 1496.198 1496.475 1496.823 1497.227 1497.538 1497.817 1498.168 1498.523 1498.888 1499.497 1500.39 1501.262 1502.008 1502.725 1503.279 1503.627 1503.851 1503.928 1503.873 1503.749 1503.643 1503.62 1503.535 1503.357 1503.164 1502.871 1502.61 1502.83 1503.389 1504.011 1504.558 1504.828 1504.817 1504.634 1504.403 1504.268 1504.245 1504.174 1503.991 1503.742 1503.504 1503.449 1503.548 1503.531 1503.381 1503.247 1503.144 1502.989 1502.743 1502.437 1502.131 1501.821 1501.632 1501.786
1554.924 1554.819 1554.856 1554.811 1554.759 1554.703 1554.526 1554.262 1554.021 1553.9 1553.851 1553.811 1553.865 1554.08 1554.309 1554.397 1554.417 1554.445 1554.461 1554.528 1554.658 1554.711 1554.608 1554.37 1554.12 1553.876 1553.569 1553.276 1553.104 1552.955 1552.711 1552.355 1551.858 1551.175 1550.234 1549.232 1548.391 1547.846 1547.55 1547.479 1547.952 1548.867 1549.478 1549.307 1548.76 1548.288 1547.804 1547.26 1546.712 1546.179 1545.769 1545.633 1545.761 1546.094 1546.546 1546.929 1547.047 1546.917 1546.783 1546.823 1546.916 1547.005 1547.416 1548.102 1548.65 1548.991 1549.229 1549.315 1549.275 1549.305 1549.447 1549.521 1549.412 1549.122 1548.763 1548.566 1548.606 1548.682 1548.754 1548.844 1548.952 1549.155 1549.303 1549.181 1548.874 1548.436 1547.839 1547.151 1546.602 1546.265 1545.973 1545.654 1545.273 1544.766 1544.267 1543.908 1543.672 1543.502 1543.359 1543.225 1543.103 1542.997 1542.859 1542.687 1542.468 1542.19 1541.903 1541.603 1541.242 1540.854 1540.566 1540.542 1540.789 1541.127 1541.304 1541.171 1540.863 1540.579 1540.287 1539.88 1539.406 1538.888 1538.235 1537.477 1536.746 1536.126 1535.677 1535.343 1535.091 1534.994 1534.961 1534.828 1534.581 1534.253 1533.784 1533.222 1532.822 1532.571 1532.186 1531.749 1531.518 1531.536 1531.614 1531.575 1531.295 1530.8 1530.294 1529.772 1529.115 1528.4 1527.772 1527.202 1526.627 1526.042 1525.357 1524.527 1523.797 1523.223 1522.661 1522.002 1521.1 1519.923 1518.801 1518.024 1517.412 1516.866 1516.516 1516.335 1516.078 1515.568 1514.782 1513.862 1512.812 1511.527 1510.218 1509.291 1508.899 1508.884 1509.022 1509.25 1509.554 1509.928 1510.214 1510.333 1510.437 1510.511 1510.377 1509.957 1509.225 1508.367 1507.524 1506.606 1505.573 1504.632 1503.955 1503.409 1502.864 1502.412 1502.141 1501.934 1501.72 1501.543 1501.601 1501.956 1502.304 1502.385 1502.128 1501.647 1500.928 1500.014 1499.323 1498.993 1498.87 1498.781 1498.656 1498.599 1498.624 1498.642 1498.67 1498.644 1498.466 1498.186 1497.896 1497.855 1498.186 1498.477 1498.631 1498.74 1498.798 1498.931 1499.124 1499.24 1499.161 1498.828 1498.392 1497.989 1497.543 1497.129 1496.79 1496.468 1496.158 1495.851 1495.545 1495.289 1495.217 1495.283 1495.249 1495.102 1495.042 1495.112 1495.199 1495.217 1495.202 1495.195 1495.163 1495.144 1495.206 1495.346 1495.592 1496.003 1496.487 1496.931 1497.281 1497.542 1497.773 1497.967 1498.072 1498.047 1497.835 1497.554 1497.602 1497.962 1498.379 1498.847 1499.154 1498.781 1497.829 1496.8 1496.103 1495.972 1496.129 1496.28 1496.347 1496.438 1496.697 1496.951 1497.163 1497.49 1497.97 1498.594 1499.415 1500.289 1501.083 1501.831 1502.534 1503.053 1503.391 1503.647 1503.783 1503.763 1503.672 1503.579 1503.437 1503.195 1502.932 1502.683 1502.398 1502.177 1502.299 1502.763 1503.375 1503.927 1504.224 1504.231 1504.029 1503.777 1503.654 1503.627 1503.495 1503.279 1503.085 1502.888 1502.805 1502.823 1502.762 1502.654 1502.57 1502.49 1502.373 1502.169 1501.857 1501.508 1501.19 1501.03 1501.14
