1839.68 1839.31 1840.36 1843.02 1843.87 1843.4 1841.99 1841.55 1843.02 1843.6 1842.75 1843.2 1842.99 1842.65 1842.55 1842.08 1840.55 1839.86 1840.26 1839.18 1839.3 1839.07 1839.49 1839.02 1839.74 1839.65 1838.84 1838.18 1837.93 1838.23 1838.24 1839.43 1838.05 1839.13 1840.12 1839.81 1840.55 1842.17 1839.7 1840.53 1840.55 
1838.25 1839.06 1841.55 1842.74 1842.8 1841.98 1841.29 1840.8 1842.43 1842.82 1842.52 1842.34 1842.37 1842.06 1841.27 1839.85 1839.69 1839.03 1838.67 1838.78 1838.16 1837.73 1838.2 1838.62 1839.23 1838.81 1838.96 1837.73 1837.17 1836.07 1836.61 1837.41 1837.67 1838.3 1839.08 1838.52 1838.18 1840.71 1840.23 1840.11 1839.98 
1838.8 1839.16 1841.47 1841.87 1842.19 1839.9 1839.43 1840.4 1841.62 1842.54 1841.96 1842.38 1842.29 1841.23 1839.95 1839.69 1839.13 1837.76 1837.3 1838.14 1838.52 1837.37 1838.35 1838.08 1838.87 1838.66 1838.4 1837.4 1837.04 1836.22 1836.32 1836.9 1837.32 1837.56 1837.57 1838.22 1837.86 1839.44 1840.02 1839.29 1838.85 
1839.8 1838.95 1840.72 1840.61 1840.34 1837.98 1838.1 1839.25 1840.17 1841.54 1841.28 1841.34 1841.57 1841.08 1838.43 1837.91 1838.7 1836.11 1835.39 1835.92 1836.98 1836.82 1836.35 1836.13 1835.77 1837.89 1837.62 1835.54 1835.93 1835.29 1836.34 1836.47 1836.7 1836.73 1836.63 1836.89 1836.89 1838.19 1838.53 1837.91 1837.71 
1839.18 1839.12 1840.16 1839.95 1838.75 1837.51 1837.97 1838.29 1838.98 1840.68 1841.09 1839.88 1839.79 1840.21 1837.91 1836.36 1836.93 1836.42 1834.84 1835.75 1835.49 1836.11 1834.74 1834.14 1834.5 1837.58 1836.56 1835.25 1835.41 1835 1835.03 1835.9 1836.07 1836.08 1836.37 1836.54 1836.16 1837.17 1837.57 1836.53 1836.99 
1838.28 1839.23 1839.22 1838.99 1837.24 1837.1 1837.71 1836.84 1837.72 1838.6 1839.11 1839.34 1838.6 1837.2 1836.87 1835.71 1834.54 1834.66 1834.41 1834.78 1834.68 1833.73 1833.05 1834.05 1834.63 1835.11 1834.91 1834.53 1834.93 1834.34 1834.67 1834.6 1835.35 1835.29 1835.59 1836.22 1834.72 1835.1 1835.14 1834.81 1834.78 
1838.99 1838.77 1839.08 1837.14 1836.09 1836.24 1836.02 1836.47 1836.61 1837.83 1838.26 1838.7 1837.72 1836.17 1835.62 1835.21 1834.14 1832.9 1832.13 1833.86 1833.68 1832.93 1832.82 1833.78 1834.5 1834.25 1833.16 1834.1 1834.67 1833.9 1834.57 1835.32 1834.89 1834.79 1835.51 1836.23 1834.48 1834.87 1835 1834.85 1834.07 
1838.09 1838.72 1838.06 1835.35 1834.63 1832.87 1833.87 1834.36 1834.74 1836.89 1837.21 1836.65 1836.31 1834.9 1834.04 1833.01 1832.72 1831.95 1832.21 1832.18 1832.24 1832.2 1831.88 1833.13 1833.04 1832.18 1831.45 1832.46 1833.46 1833.01 1833.53 1835.26 1834.89 1834.82 1835.58 1833.98 1833.83 1834.24 1834.28 1834.1 1833.03 
1838.12 1838.07 1835.99 1834.68 1833.3 1831.55 1833.41 1833.15 1834.28 1836.73 1836.64 1835.18 1835.68 1834.77 1833.19 1832.4 1832.3 1832.07 1831.8 1831.76 1831.4 1831.81 1831.6 1832.24 1832.3 1830.95 1830.94 1831.57 1832.77 1832.2 1832.64 1834.12 1834.45 1834.27 1834.99 1832.69 1833.94 1833.69 1833.67 1833.23 1831.9 
1836 1834.39 1833.47 1832.32 1831.7 1831.5 1832.47 1832.19 1832.39 1834.59 1834.04 1832.83 1833.16 1834.03 1833.85 1832.27 1832.25 1831.49 1830.63 1830.85 1830.36 1830.48 1831.55 1831.1 1831.31 1830.02 1830.36 1830.46 1831.53 1830.79 1831.35 1832.96 1832.47 1833.38 1833.06 1832.54 1832.36 1832.36 1832.16 1830.99 1830.69 
1834.75 1832.78 1831.98 1831.52 1831.16 1830.15 1830.98 1831.63 1831.4 1832.36 1832.55 1832.35 1832.16 1833.84 1833.35 1831.2 1831.18 1829.7 1829.17 1830.08 1830.47 1830.43 1831.43 1830.79 1830.83 1829.29 1829.75 1829.6 1830.59 1830.4 1831.32 1831.92 1831.34 1831.84 1831.4 1832.3 1831.86 1831.89 1831.23 1830.78 1830.5 
1833.01 1830.9 1830.03 1830.39 1830.32 1829.3 1828.04 1830.04 1829.77 1829.92 1830.33 1830.31 1830.42 1830.72 1831.63 1831.09 1829.44 1827.91 1827.82 1828.54 1828.98 1828.74 1829.98 1829.75 1829.62 1827.97 1827.73 1828.94 1830.59 1830.6 1830.24 1830.41 1829.99 1831.59 1831.75 1831.77 1831.24 1830.56 1830.59 1829.47 1830.15 
1829.83 1828.87 1828.89 1830.41 1830.38 1829 1827.18 1828.42 1828.44 1829.17 1828.22 1829.78 1829.33 1828.51 1829.19 1830.25 1829.25 1827.42 1827.5 1827.68 1828.28 1826.69 1828.95 1829.1 1829.1 1827.73 1827.25 1829.48 1830 1829.58 1829.89 1829.7 1830.8 1830.56 1830.89 1831.37 1830.85 1829.59 1830.01 1829.44 1828.8 
1826.57 1826.93 1826.93 1827.91 1828.64 1828.38 1826.66 1827.02 1827.17 1827.88 1828.03 1828.21 1827.83 1827.2 1827.03 1828.56 1828.26 1826.65 1826.57 1827 1827.78 1826.62 1827.73 1828.28 1827.73 1826.22 1826.92 1826.92 1827.53 1828.63 1829.65 1830.8 1830.27 1829.5 1829.76 1830.38 1830.53 1828.67 1828.7 1828.25 1827.72 
1825.94 1825.31 1824.71 1825.22 1827.32 1827.61 1826.27 1825.45 1826.01 1827.24 1827.54 1827.18 1826.52 1825.86 1825.41 1826.85 1827.46 1826.1 1826.09 1825.56 1826.39 1825.47 1826.36 1827.5 1827.07 1826.69 1826.3 1826.17 1826.28 1827.36 1827.8 1829.09 1829.05 1828.74 1829.42 1829.54 1830.16 1827.79 1827.46 1826.96 1826.28 
1824.98 1824.2 1823.53 1822.87 1823.63 1826.23 1826.02 1824.64 1825.7 1825.97 1826.48 1825.19 1824.95 1823.44 1824.62 1824.64 1824.43 1824.7 1824.6 1825.07 1825.13 1823.43 1825.14 1826.74 1826.32 1825.34 1825.06 1825.54 1825.35 1826.58 1826.58 1826.95 1827.69 1828.62 1828.25 1827.93 1828.51 1827.07 1826.25 1825.75 1826.41 
1823.71 1823.55 1823.01 1822.14 1822.9 1825.31 1825.38 1823.7 1824.76 1824.95 1825.62 1824.11 1823.43 1823.19 1824.04 1823.51 1823.56 1823.39 1823.55 1823.64 1823.69 1822.96 1824.8 1825.77 1825.62 1823.6 1824.85 1824.72 1824.95 1826.29 1825.79 1826.43 1827 1827.61 1826.93 1826.02 1826.54 1826.14 1824.77 1824.43 1826.13 
1819.7 1821.93 1821.88 1821.86 1821.61 1821.63 1822.96 1823.07 1823.22 1823.56 1823.53 1824.44 1822.42 1822.19 1823.57 1822 1821.47 1821.38 1821.8 1822.96 1821.97 1822.8 1824.25 1824.63 1823.81 1822.68 1822.59 1822.82 1824.42 1825.5 1824.47 1825.23 1825.85 1826.07 1825.62 1824.27 1824.63 1824.74 1822.68 1823 1824.16 
1817.35 1819.64 1819.8 1821.34 1821.19 1821.09 1821.28 1822.04 1822.14 1822.97 1823.47 1824.3 1823.23 1821.11 1821.55 1821.84 1820.8 1820.86 1820.4 1822.05 1821.73 1822.47 1823.04 1823.53 1822.89 1822.05 1820.96 1821.16 1823.42 1825.02 1823.72 1824.48 1825.09 1824.46 1824.28 1823.4 1823.35 1822.86 1821.53 1822.2 1823.01 
1816.91 1816.39 1816.78 1818.25 1819.53 1820.67 1820.09 1820.27 1820.87 1821.58 1822.01 1821.68 1821.31 1821.09 1820.48 1819.96 1820.47 1820.26 1820.06 1820.58 1821.25 1820.95 1821.98 1822.85 1822.22 1821.17 1820.27 1821.73 1822.04 1822.87 1822.86 1824.2 1823.39 1823.49 1823.23 1822.05 1821.61 1820.5 1821.21 1820.89 1820.93 
1816.72 1816.25 1815.87 1816.17 1817.33 1818.57 1819.17 1819.97 1819.89 1820.96 1821.36 1821.54 1820.43 1820.28 1819.71 1819.44 1819.23 1819.45 1819.48 1819.96 1820.68 1820.7 1821.18 1822.09 1821.68 1820.71 1820.48 1820.85 1820.71 1822.03 1821.46 1822.95 1822.47 1823.09 1822.62 1821.83 1821.02 1819.67 1820.84 1819.73 1820.77 
1816.4 1815.89 1815.69 1815.17 1815.12 1815.8 1815.98 1818.67 1818.98 1819.28 1820.08 1820.57 1819.15 1818.62 1817.94 1817.46 1817.64 1818.54 1818.58 1818.3 1817.73 1818.84 1820.3 1821.5 1821.87 1820.21 1818.36 1818.51 1818.89 1820.4 1818.94 1819.49 1820.89 1821.33 1820.85 1820.16 1819.57 1818.92 1819.08 1817.98 1819.12 
1816.3 1815.66 1815.46 1815.01 1814.74 1814.44 1815.15 1816.71 1817.86 1818.41 1818.43 1819.56 1817.68 1816.62 1816.18 1815.78 1816.32 1817.78 1817.56 1816.74 1817.52 1818.52 1820.28 1821.6 1821.67 1819.99 1817.51 1816.86 1817.79 1819.41 1818.18 1819.3 1819.7 1819.83 1819.4 1818.82 1818.43 1818.1 1818.13 1816.72 1817.89 
1815.82 1815.5 1815.37 1814.9 1814.53 1814.02 1813.79 1813.46 1814.15 1815.4 1816.03 1816.55 1816.15 1814.99 1814.3 1812.71 1814.99 1816.66 1815.93 1815.62 1816.91 1818.19 1819.36 1820.6 1820.36 1819.06 1817.08 1814.57 1816.79 1817.84 1817.09 1816.5 1817.43 1816.7 1817.25 1817.05 1817.05 1816.58 1816.41 1815.8 1816.22 
1815.51 1815.4 1814.98 1814.73 1814.31 1814.14 1813.52 1813.17 1812.84 1813.81 1814.61 1815.32 1815.07 1813.44 1812.39 1811.77 1813.48 1815.39 1815.25 1815.03 1816.41 1816.56 1817.52 1820.3 1820.44 1818.38 1817.17 1814.06 1816.13 1816.53 1816.09 1815.07 1816.03 1815.54 1815.6 1815.87 1816.24 1815.8 1815.83 1814.51 1814.67 
1815.07 1814.86 1814.62 1814.37 1813.96 1813.2 1812.99 1812.8 1812.59 1812.23 1812.42 1812.7 1813.32 1812.42 1811.73 1812.35 1813.07 1813.37 1813.82 1814.16 1814.85 1815.28 1814.93 1817.78 1818.56 1815.11 1815.25 1813.55 1814.43 1815.39 1814.35 1813.57 1813.46 1813.01 1813.99 1814.38 1814.3 1814.22 1814.24 1813.14 1812.26 
1814.89 1814.91 1814.49 1813.71 1813.81 1812.86 1812.65 1812.4 1812.22 1811.99 1811.79 1811.62 1811.62 1811.5 1811.18 1811.74 1812.36 1812.31 1812.68 1813.19 1813.79 1814.46 1813.88 1815.56 1816.04 1814.48 1814.03 1813.41 1813.19 1813.99 1812.94 1812.59 1812.87 1813.2 1813.57 1812.93 1813.36 1813.29 1813.61 1812.68 1812.1 
1814.85 1814.44 1813.87 1812.92 1813.51 1812 1811.91 1811.84 1811.54 1811.62 1811.29 1811.07 1810.98 1810.66 1810.35 1809.74 1809.79 1809.82 1810.54 1811.63 1812.36 1813.45 1813.27 1813.26 1812.94 1813.1 1812.12 1812.59 1812.44 1812.57 1811.5 1811.27 1811.02 1811.49 1812.3 1811.62 1811.95 1812.02 1812.55 1810.71 1810.83 
1814.74 1814.46 1813.86 1813.12 1813.02 1811.01 1810.64 1810.85 1810.69 1810.87 1810.93 1810.79 1810.71 1810.34 1810.02 1808.8 1808.53 1808.45 1809.46 1810.71 1810.59 1811.39 1811.39 1812.93 1812.17 1812.47 1811.56 1812.17 1812.18 1810.45 1810.41 1810.55 1810.08 1811.62 1812.01 1811.57 1811.96 1811.49 1811.75 1810.13 1809.46 
1814.37 1813.92 1814.44 1812.98 1811.58 1810.11 1809.24 1809.57 1809.27 1809.32 1809.43 1810.28 1810.18 1810.12 1809.6 1808.96 1807.55 1807.02 1807.63 1808.3 1809.89 1810.49 1809.57 1809.88 1809.62 1810.84 1811.49 1811.37 1810.76 1810.21 1809.82 1809.24 1809.02 1811.31 1811.38 1811.1 1810.13 1808.88 1809.43 1808.8 1808.56 
1812.71 1813.5 1813.27 1811.84 1810.11 1809.3 1808.57 1808.43 1808.27 1808.04 1808.12 1809.37 1809.76 1809.81 1809.51 1808.17 1807.18 1806.27 1806.64 1808.39 1809.28 1809.35 1808.35 1808.3 1808.26 1809.96 1810.26 1810.19 1809.45 1809.84 1808.6 1808.04 1807.47 1809.52 1810 1811 1809.36 1807.21 1807.48 1807.24 1807.43 
1811.36 1811.63 1811 1809.77 1809.35 1808.07 1808.03 1807.13 1807.21 1806.57 1806.7 1807.77 1808.88 1809.26 1809.12 1807.66 1806.74 1805 1805.66 1806.86 1808.03 1807.75 1807.26 1806.91 1806.92 1807.63 1808.24 1808.31 1807.98 1808.23 1807.49 1806.12 1805.77 1807.44 1808.09 1808.44 1807.51 1805.73 1805.71 1805.38 1805.08 
1810.78 1810.26 1809.88 1808.7 1808.31 1808.09 1807.24 1806.32 1806.21 1805.86 1805.43 1806.5 1808.31 1808.79 1808.92 1807.73 1806.35 1804.6 1805.08 1806.01 1806.74 1806.76 1806.59 1805.75 1806.2 1806.83 1807.27 1807.54 1807.44 1806.17 1806.17 1806.1 1805.86 1806.41 1807.56 1806.21 1805.89 1804.53 1804.48 1803.97 1803.9 
1808.35 1807.9 1807.98 1806.79 1805.76 1806.7 1806.1 1804.83 1804.08 1804.52 1804.26 1804.96 1807.22 1808.23 1808.33 1807.56 1805.83 1804.24 1804.28 1805.3 1805.05 1805.67 1804.94 1804.88 1805 1805.13 1806 1805.69 1805.07 1803.5 1804.81 1804.97 1805.37 1805.86 1805.82 1804.9 1804.16 1803.12 1802.83 1802.22 1801.45 
1807.29 1806.79 1806.12 1805.29 1804.13 1805.95 1805.48 1803.45 1803.22 1804 1803.71 1804.29 1806.66 1807.91 1808.05 1807.14 1805.23 1804.21 1803.47 1804.08 1804.24 1804.68 1803.51 1805.06 1804.48 1804.63 1805.06 1804.67 1803.77 1802.22 1804.23 1804.29 1805.05 1805.05 1804.83 1803.89 1803.28 1802.16 1801.27 1800.93 1800.08 
1805.15 1804.87 1804.48 1802.77 1802.03 1804.24 1803.61 1802.76 1802.03 1802.76 1802.7 1804.15 1806.53 1807.2 1807.41 1806.51 1804.56 1803.18 1802.12 1802.76 1803.83 1804.06 1803.42 1804.56 1803.81 1803.38 1803.1 1803.71 1802.12 1801.39 1802.57 1803.57 1803.69 1803.52 1803.01 1801.81 1801.07 1800.47 1799.4 1799.23 1798.55 
