1550.99 1550.21 1550.95 1550.31 1549.85 1549.04 1546.99 1546.83 1546.86 1546.84 1548.24 1548.32 1549.04 1549.38 1549.68 1548.8 1547.1 1544.89 1542.65 1542.26 1541.88 1541.5 1541.42 1541.67 1542.17 1542.36 1542.52 1542.31 1540.27 1539.07 1536.23 1533.7 1529.69 1528.41 1527.43 1527.04 
1552.3 1552.07 1551.74 1551.25 1550.97 1549.84 1549.41 1548.94 1548.77 1548.15 1548.85 1548.96 1549.33 1549.61 1550.36 1549.61 1548.97 1547.4 1544.6 1543.35 1541.81 1541.52 1541.24 1541.4 1541.78 1541.78 1541.76 1541.54 1539.79 1538.9 1536.35 1533.76 1529.73 1528.18 1527.05 1526.88 
1552.47 1552.18 1551.54 1551.22 1551.23 1550.38 1550.33 1551.05 1549.94 1549.49 1549.14 1549.06 1549.58 1549.79 1549.91 1549.59 1550.35 1549.5 1547.95 1546.07 1542.68 1541.56 1540.89 1540.67 1540.7 1540.58 1540.76 1539.28 1538.12 1536.61 1534.21 1532.09 1529.24 1527.77 1526.53 1526.2 
1554.33 1553.41 1552.9 1552.67 1551.98 1551.58 1551.18 1551.59 1550.61 1551.13 1550.05 1549.78 1549.65 1549.19 1549.55 1549.14 1549.67 1550.21 1548.94 1547.69 1543.87 1541.95 1540.63 1540.01 1539.55 1539.59 1538.27 1537.77 1536.68 1535.28 1532.52 1530.92 1528.73 1527.27 1526.53 1526.11 
1551.54 1551.86 1552.72 1553.25 1553.64 1554.09 1553.12 1552.11 1550.47 1550.81 1551.34 1551.67 1549.79 1548.7 1548.88 1548.93 1549.52 1548.76 1550.59 1548.91 1545.95 1542.87 1540.78 1539.16 1537.87 1537.42 1536.8 1535.53 1533.96 1533.65 1531.47 1529.99 1528.29 1527.48 1526.39 1525.88 
1550.53 1550.03 1550.2 1550.89 1551.59 1551.93 1553.26 1553.45 1552.85 1551.94 1551.26 1550.98 1551.64 1549.84 1548.82 1549.07 1549.63 1549.15 1550 1549.57 1547.4 1544.32 1540.4 1538.8 1536.87 1536.27 1535.37 1534.75 1533.18 1532.45 1530.73 1530.11 1528.4 1527.74 1526.05 1525.97 
1550.81 1550.46 1549.92 1549.79 1550.03 1549.86 1549.7 1550.46 1551.17 1551.08 1552.19 1551.51 1551.14 1550.15 1549.63 1549.32 1549.45 1550.01 1549.6 1549.67 1546.99 1544.25 1540.81 1538.85 1536.3 1535.48 1534.28 1533.34 1532.2 1531.5 1530.11 1530.06 1528.56 1528.31 1526.41 1527.61 
1551.32 1551.06 1550.46 1550.19 1549.77 1549.49 1549.03 1548.63 1548.33 1548.2 1548.31 1549.27 1550.24 1551.01 1550.9 1550.49 1549.13 1549.03 1549.5 1549.6 1547.04 1544.89 1541.78 1539.8 1536.8 1535.84 1533.6 1532.81 1532.2 1531.83 1530.8 1531.15 1529.81 1529.08 1529.4 1529.01 
1551.51 1551.16 1550.56 1550.18 1549.72 1549.42 1548.96 1548.67 1548.21 1547.86 1547.55 1547.29 1547.31 1547.52 1548.07 1548.38 1549.24 1549.72 1549.57 1548.93 1548 1546.53 1543.45 1542.1 1539.37 1537.9 1535.93 1534.54 1533.35 1532.97 1532.14 1532.58 1532.63 1531.37 1530.88 1530.74 
1551.46 1551.11 1550.41 1550.07 1549.51 1549.09 1548.72 1548.48 1548 1547.74 1547.36 1547.17 1546.85 1546.6 1546.35 1546.26 1546.18 1546.95 1548.07 1549.65 1549.44 1548.29 1546.25 1544.14 1541.77 1540.56 1538.37 1536.95 1535.25 1534.36 1533.63 1533.95 1533.46 1532.57 1531.79 1531.77 
1551.06 1550.47 1549.5 1549.79 1548.71 1548.31 1548.69 1548.4 1547.9 1547.72 1547.09 1546.83 1546.46 1546.29 1545.95 1545.67 1545.08 1544.72 1544.33 1544.43 1545.09 1545.88 1547.22 1547.43 1545.7 1544.2 1542.24 1540.65 1538.34 1536.84 1535.72 1534.95 1533.81 1533.24 1532.96 1532 
1550.82 1550.4 1549.92 1549.75 1549.06 1548.07 1548.21 1548.39 1548.28 1548.21 1547.21 1547.22 1546.33 1546.11 1545.65 1545.55 1544.96 1544.65 1544.09 1543.89 1543.16 1542.84 1543.05 1544.03 1545.46 1545.34 1544.07 1542.77 1540.54 1539.2 1537.17 1536.65 1533.92 1533.44 1533.57 1532.87 
1551.06 1550.75 1550.33 1550.04 1548.63 1547.99 1548.46 1547.47 1547.58 1548.02 1546.83 1546.62 1547.12 1545.75 1545.54 1545.31 1544.97 1544.53 1543.89 1543.51 1542.97 1542.52 1541.8 1541.02 1541.74 1541.02 1540.49 1540.4 1539.85 1539.47 1539 1538.43 1538.09 1536 1535.29 1534.45 
1550.39 1551.11 1549.9 1549.9 1549.73 1548.27 1548.46 1547.01 1547.44 1548 1546.28 1546.18 1546.33 1545.55 1545.23 1544.86 1544.73 1544.34 1543.78 1543.37 1542.77 1542.33 1541.55 1540.94 1541.26 1541.01 1539.72 1539.58 1538.33 1538 1536.74 1536.5 1535.55 1534.74 1533.44 1532.54 
1550.03 1550.5 1549.53 1549.41 1549.34 1548.94 1548.97 1547.64 1546.72 1546.4 1546.59 1545.91 1545.57 1545.68 1544.55 1544.18 1544.1 1543.9 1543.58 1543.24 1542.66 1542.18 1541.61 1540.72 1539.63 1539.86 1538.98 1538.09 1537.24 1536.96 1536.31 1535.9 1535.2 1534.34 1533.13 1532.47 
1550.53 1550.11 1549.73 1549.48 1549.05 1548.97 1548.38 1546.77 1546.94 1546.38 1546.38 1545.81 1545.67 1545.78 1544.41 1544.1 1544.05 1543.47 1542.82 1542.97 1542.55 1542.06 1541.42 1541.02 1539.51 1538 1537.57 1536.66 1536.3 1536.12 1535.17 1535.46 1534.68 1534.18 1533.15 1532.75 
1550.06 1549.74 1549.33 1549.15 1548.88 1548.49 1548.26 1547.31 1546.27 1545.97 1546.51 1545 1545.33 1544.78 1544.96 1544.23 1543.81 1543.42 1542.74 1542.06 1541.58 1541.87 1541.3 1540.84 1540.13 1539.64 1538.02 1536.2 1534.84 1535.12 1534.42 1534.16 1533.68 1533.65 1532.88 1532.06 
1549.73 1549.58 1548.9 1548.43 1548.05 1548.11 1548.26 1547.58 1546.63 1546.69 1546.65 1545.89 1544.98 1544.84 1545.41 1545.01 1543.79 1543.49 1542.9 1542.13 1540.91 1540.38 1540.91 1540.59 1540.03 1539.62 1538.98 1538.23 1535.18 1534.98 1534.04 1533.23 1532.62 1532.87 1532.86 1531.98 
1550.4 1550.03 1549.07 1548.39 1547.6 1547.25 1547.1 1546.8 1546.84 1546.91 1546.58 1546.73 1545.44 1545.61 1545.28 1544.99 1544.67 1544.55 1544.81 1543.66 1540.91 1539.7 1539.27 1539.16 1539.72 1539.35 1538.72 1538.31 1537.36 1536.96 1534.46 1533.78 1532.55 1532.28 1531.95 1531.25 
1550.65 1550.11 1549.35 1548.98 1547.96 1547.55 1546.99 1546.79 1546.81 1546.68 1546.77 1546.57 1546.31 1545.98 1545.6 1545.17 1546.24 1547.02 1547.24 1545.54 1542.69 1540.63 1538.96 1538.66 1538.28 1538.74 1538.59 1538.22 1537.36 1537.06 1536.14 1535.1 1532.78 1532.23 1531.99 1531.41 
1552.38 1551.67 1550.63 1549.78 1548.52 1547.76 1547.25 1547.22 1547.08 1546.95 1546.71 1546.4 1546.25 1546.16 1545.86 1546.44 1548.12 1548.82 1549.63 1550.25 1547.62 1545.83 1542.76 1539.91 1538.04 1537.41 1536.94 1537.12 1537.18 1536.77 1536.02 1535.67 1534.91 1533.81 1531.98 1531.52 
1552.03 1551.03 1550.1 1548.91 1548.33 1547.93 1547.42 1547.17 1547.46 1547.29 1546.8 1546.46 1546.08 1546.07 1545.9 1546.02 1547.88 1548.7 1551.39 1552.1 1550.16 1548.31 1545.96 1544.43 1539.96 1538.62 1536.8 1536.25 1536.23 1536.49 1535.99 1535.57 1534.92 1534.41 1533.38 1532.29 
1553 1549.86 1548.32 1547.42 1547.27 1547.39 1546.94 1547.27 1546.86 1546.71 1546.22 1546.08 1545.79 1545.6 1545.33 1545.06 1547.01 1548.81 1547.81 1548.98 1546.9 1545.79 1544.63 1544.17 1542.9 1540.86 1537.73 1536.13 1533.68 1533.65 1534.71 1535.12 1534.64 1534.28 1533.53 1533.18 
1550.81 1549.88 1548.68 1547.96 1547.17 1547.53 1547.34 1547.45 1547.3 1546.48 1546.19 1546.3 1545.42 1545.42 1545.23 1544.46 1544.36 1546.13 1547.24 1545.55 1546.31 1545.15 1543.76 1542.22 1540.7 1538.04 1535.97 1534.56 1533.13 1532.97 1532.32 1533.29 1534.4 1533.91 1533.49 1533.04 
1550.61 1550.92 1549.94 1549.95 1549.51 1549.04 1548.22 1548.05 1547.64 1547.19 1546.66 1546.55 1545.9 1545.32 1544.19 1544.15 1543.04 1542.52 1542.89 1543.27 1543.21 1542.84 1541.45 1540.25 1538.63 1537.35 1535.69 1534.11 1532.29 1532.26 1532.02 1531.71 1532.3 1533.44 1533.15 1532.83 
1551.75 1552.22 1552.97 1552.81 1552.02 1551.55 1550.55 1549.38 1548.58 1548.31 1547.66 1547.25 1546.44 1545.97 1544.85 1544.37 1542.27 1541.77 1541.19 1540.43 1541.17 1540.73 1539.69 1538.98 1537.29 1535.69 1534.61 1534.37 1533.82 1533.39 1532.68 1532.16 1532.05 1532.66 1533.14 1532.78 
1555.99 1554.83 1553.22 1552.62 1553.33 1553.18 1551.01 1550.74 1549.53 1550 1549.76 1549.55 1547.84 1546.96 1546.19 1545.35 1544.13 1543.13 1541.61 1541.36 1541.52 1540.97 1539.83 1539.19 1538.02 1537.46 1536.99 1536.69 1535.4 1534.44 1534.16 1533.55 1532.52 1531.67 1532.83 1532.54 
1555.32 1554.71 1553.14 1553.28 1553.74 1552.69 1549.56 1548.47 1548.21 1548.69 1549.2 1549.46 1548.55 1547.43 1546.48 1545.61 1544.95 1544.21 1542.38 1542.07 1541.84 1541.41 1540.67 1539.67 1538.39 1538.17 1537.97 1536.57 1534.49 1533.81 1533.46 1532.97 1531.8 1531.58 1532.82 1532.6 
1555.37 1555.1 1553.56 1553.63 1553.07 1552.31 1551.66 1550.14 1547.65 1546.56 1546.85 1547.34 1547.56 1546.82 1547.65 1546.62 1544.93 1544.23 1543.22 1542.7 1542.27 1541.8 1541.43 1540.54 1539.52 1539.07 1538.66 1537.27 1534.89 1533.6 1532.17 1531.93 1531.12 1532.18 1532.65 1532.58 
1556.23 1555.29 1553.07 1552.73 1551.98 1552.25 1552.76 1552.14 1549.47 1547.4 1545.62 1545.64 1545.76 1545.05 1545.42 1546.27 1545.51 1544.29 1543.86 1543.73 1542.44 1541.61 1540.68 1539.96 1538.89 1538.68 1538.01 1537.08 1534.64 1534.33 1532.24 1531.8 1531.36 1533.12 1532.84 1532.61 
1553.95 1553.54 1551.65 1551.54 1551.01 1551.39 1550.27 1550.5 1551.15 1549.63 1545.69 1544.48 1544.03 1541.84 1542.79 1544.04 1543.74 1543.7 1543.37 1542.16 1540.98 1538.09 1537.33 1536.67 1535.21 1535.38 1534.37 1534.54 1532.87 1531.71 1531.76 1531.45 1532.93 1533.31 1532.98 1532.73 
1553.58 1552.97 1552.43 1552.36 1551.89 1551.51 1550.06 1549.17 1549.76 1549.4 1546.36 1544.09 1543.05 1541.34 1542.24 1542.59 1542.59 1542.2 1541.2 1540.3 1538.36 1537.34 1536.75 1536.2 1535.71 1535.01 1534.17 1533.75 1532.65 1531.87 1531.52 1532.07 1533.69 1533.51 1533.1 1532.9 
1556.87 1555.27 1554.2 1552.76 1551.93 1551.52 1549.7 1548.57 1546.59 1545.77 1545.44 1544.19 1544.48 1543.52 1542.54 1541.89 1540.15 1539.75 1539.09 1538.1 1538.03 1537.46 1537.42 1536.84 1536.45 1535.62 1534.22 1533.63 1532.88 1532.71 1532.06 1533.14 1534.03 1533.77 1533.44 1533.21 
1558.54 1557.58 1554.8 1553.12 1551.94 1551.53 1549.54 1547.97 1545.25 1544.61 1544.19 1543.07 1542.28 1542.5 1541.31 1540.8 1540.56 1539.7 1539.18 1538.53 1538.58 1537.84 1537.86 1537.29 1536.87 1536 1534.19 1533.65 1533.36 1533.07 1533.22 1534.44 1534.2 1534.01 1533.61 1533.3 
1555.77 1556.07 1554.83 1552.33 1550.36 1549.6 1548.74 1549.08 1547.91 1546 1543.37 1542.03 1541.65 1541.55 1540.84 1540.65 1540.7 1539.97 1539.8 1539.23 1538.6 1538.22 1536.95 1536.79 1536.2 1534.91 1534.5 1534.35 1534.17 1534.15 1535.3 1535.05 1534.6 1534.37 1533.85 1533.44 
1554.97 1553.74 1552.87 1553.01 1549.44 1548.83 1547.42 1547.66 1547.74 1546.14 1543.86 1541.73 1541.78 1541.49 1541.18 1541.02 1540.72 1540.37 1540.04 1539.49 1538.3 1537.68 1536.62 1536.61 1536.11 1535.88 1535.56 1534.86 1534.46 1535.4 1535.62 1535.15 1534.79 1534.56 1533.66 1531.67 
1552.17 1551.36 1549.25 1548.29 1547.45 1546.95 1545.95 1545.46 1544.92 1544.29 1542.52 1541.68 1541.84 1541.93 1541.35 1541.35 1541.07 1540.46 1540.35 1539.21 1538.55 1537.82 1537.49 1537.47 1537.98 1537.58 1536.32 1535.68 1536.27 1536.46 1535.93 1535.63 1535.27 1534.96 1532.51 1531.08 
1552.28 1550.73 1548.87 1547.78 1547.23 1546.24 1545.65 1545.17 1544.73 1544.03 1542.59 1542.28 1541.94 1541.97 1541.69 1541.67 1540.96 1540.17 1539.35 1538.61 1538.48 1538.18 1537.91 1537.89 1539.11 1538.09 1536.77 1536.55 1536.83 1536.67 1536.3 1535.92 1535.66 1534.63 1531.44 1531.28 
1552.45 1550.55 1548.61 1547.62 1547.19 1546.6 1545.94 1545.27 1544.25 1544.11 1543.86 1543.13 1543.56 1543.11 1543.58 1542.63 1541.24 1541.05 1539.87 1539.36 1538.87 1538.6 1538.93 1538.84 1538.19 1537.61 1537.18 1537.62 1537.33 1537.1 1536.61 1536.38 1536.05 1534.79 1532.54 1533.48 
1551.09 1549.73 1548.24 1547.4 1547.16 1546.73 1545.99 1545.7 1545.17 1545.29 1544.4 1543.71 1544.37 1544.41 1542.22 1541.96 1540.86 1539.74 1537.93 1538.3 1538.37 1537.59 1537.99 1538.19 1537.64 1537.76 1537.62 1537.82 1537.45 1537.36 1536.92 1536.65 1536.7 1535.42 1534.17 1534.82 
1549.95 1549.19 1547.99 1547.08 1546.67 1546.54 1546.46 1546.5 1545.91 1545.12 1544.8 1543.85 1542.74 1542.26 1540.78 1539.93 1539.01 1537.86 1536.91 1537 1536.25 1536.19 1535.96 1536.88 1538.23 1538.24 1538.28 1538.2 1537.94 1537.69 1537.33 1537.12 1537.13 1536.89 1536.23 1535.23 
1549.22 1549.54 1548.19 1547.36 1546.42 1545.65 1545.44 1545.75 1545.65 1544.21 1543.65 1543.56 1542.18 1542.16 1541.31 1540.74 1539.38 1538.64 1536.69 1536.94 1536.46 1536.32 1535.4 1537.68 1538.98 1538.88 1538.74 1538.45 1538.15 1537.92 1537.61 1537.46 1537.42 1537.07 1536.28 1535.62 
1548.73 1546.99 1546.42 1546.1 1545.5 1544.96 1543.93 1543.24 1544.15 1543.95 1543.85 1543.47 1542.57 1542.37 1541.82 1541.32 1539.87 1538.98 1537.34 1537.12 1537.03 1536.79 1537.79 1539.84 1539.75 1539.27 1538.79 1538.72 1538.53 1538.3 1537.92 1537.35 1535.08 1534.54 1535.05 1534.93 
1548.41 1546.86 1545.78 1545.31 1544.89 1544.61 1543.56 1543.38 1544.33 1544.15 1544.25 1543.6 1543.06 1542.78 1542.09 1541.2 1540.1 1539.17 1537.99 1537.65 1537.13 1536.92 1539.63 1540.47 1539.89 1539.7 1539.08 1538.94 1538.73 1538.55 1538.19 1537.18 1535.13 1535.23 1536.05 1535.59 
1551.17 1549.7 1548.45 1548.24 1547.62 1546.48 1545.29 1544.98 1545.23 1545.24 1544.84 1544.59 1543.85 1543.35 1541.93 1540.92 1540.49 1539.12 1538.18 1537.69 1538.1 1539.64 1541.05 1540.85 1539.99 1539.68 1539.3 1539.26 1539.03 1538.94 1538.69 1537.72 1535.7 1536.8 1536.05 1534.05 
1552.19 1551.03 1549.95 1549.43 1548.85 1547.93 1546.73 1546.28 1546.63 1546.57 1545.92 1545.69 1545.15 1544.37 1542.82 1542.15 1541.25 1539.87 1538.28 1537.97 1539.34 1540.04 1541.46 1540.95 1540.12 1540.2 1539.52 1539.24 1539.24 1539.03 1538.99 1537.96 1536 1537.29 1535.85 1533.93 
1553.32 1552.15 1551 1550.08 1549.4 1548.76 1548.69 1548.82 1548.34 1548.12 1548.01 1547.46 1545.6 1544.87 1544.06 1543.53 1542.78 1541.54 1539.09 1539.08 1540.99 1542.11 1542.86 1542.16 1541.19 1540.53 1540.6 1539.56 1539.45 1539.38 1539.18 1538.15 1536.68 1537.15 1535.16 1534.2 
1553.73 1552.38 1551.68 1550.9 1550.58 1550.89 1550.71 1550.88 1550.43 1550.49 1550.52 1548.98 1545.66 1544.37 1544.11 1543.59 1542.72 1541.67 1540.74 1541.17 1543.28 1543.84 1544.09 1543.73 1542.95 1542.45 1542.11 1540.8 1539.56 1539.56 1539.28 1538.08 1536.38 1537.24 1535.66 1534.25 
1555.75 1554.93 1554.33 1554.12 1555.72 1555.32 1554.34 1554.4 1554.31 1554.05 1552.8 1551.18 1547.81 1546.11 1543.74 1542.78 1542.7 1542.72 1544.25 1544.61 1544.94 1545.1 1544.91 1544.55 1544.36 1544.25 1543.49 1542.9 1539.81 1539.78 1539.6 1538.72 1537.83 1537.38 1536.73 1534.77 
1558.36 1557.66 1557.01 1557.3 1557.95 1557.86 1557.23 1556.54 1555.62 1554.77 1553.08 1551.87 1549.28 1548.31 1545.61 1545.29 1545.65 1545.44 1546.59 1546.4 1545.86 1545.44 1545.03 1544.85 1544.64 1544.45 1544.53 1542.3 1539.88 1539.93 1539.72 1539.48 1538.31 1538.17 1537.51 1535.7 
1562.42 1561.7 1561.27 1561.22 1560.05 1559.52 1558.68 1557.74 1556.37 1555.57 1553.64 1552.19 1550.22 1549.25 1548.35 1547.82 1547.45 1547.77 1548.16 1547.88 1545.88 1545.67 1545.24 1545.47 1545.14 1544.97 1545.12 1543.49 1540.11 1539.95 1539.88 1539.69 1540.23 1540.41 1539.96 1538.41 
1565.11 1563.83 1562.77 1562.38 1561 1560.44 1559.62 1558.72 1557.55 1556.37 1554.38 1553.05 1551.16 1550.12 1548.63 1548.89 1548.79 1548.63 1548.12 1547.38 1545.97 1546.07 1545.44 1545.63 1545.16 1544.69 1544 1542.58 1540.13 1540.06 1539.98 1539.81 1540.13 1540.41 1540.49 1539.27 
1564.86 1564.09 1562.79 1562.6 1562.55 1562.2 1560.92 1559.87 1558.18 1556.58 1553.92 1552.38 1550.96 1550.72 1549.43 1549.59 1548.46 1548.14 1548.05 1548.07 1546.63 1546.15 1545.8 1545.89 1544.84 1543.46 1541.61 1540.01 1539.98 1540.13 1540.17 1540.05 1540.01 1540.1 1541.04 1540.33 
1565.91 1565.3 1564.05 1563.62 1563.38 1563.09 1561.75 1560.25 1558.27 1556.31 1553.57 1551.86 1549.83 1548.84 1549.49 1550.05 1549.85 1549.46 1548.83 1548.51 1547.58 1546.99 1546.37 1545.51 1544.18 1542.17 1540.38 1539.53 1539.47 1540.14 1540.25 1540.2 1540.19 1540.67 1541.17 1539.73 
1564.91 1564.87 1565.26 1565.19 1564.1 1563.57 1562 1561.28 1558.76 1556.17 1553.07 1551.09 1548.85 1548.88 1549.5 1550.24 1550 1549.64 1549.26 1548.94 1548.31 1547.53 1547.04 1545.85 1544.03 1543.42 1542.3 1541.81 1541.35 1540.97 1540.33 1540.33 1540.27 1541.48 1541.15 1539.83 
1563.49 1564.57 1564.89 1564.86 1564.23 1563.66 1562.36 1560.72 1557.11 1555.43 1552.46 1551.26 1549.88 1550.05 1549.42 1549.82 1549.82 1549.57 1549.37 1549.5 1548.74 1548.13 1547.33 1546.01 1544.74 1544.28 1544.22 1543.47 1541.85 1541.01 1540.44 1540.36 1540.5 1541.65 1540.66 1540.25 
1563.1 1563.23 1564.63 1565.15 1563.48 1562.46 1561.44 1559.75 1558.47 1556.9 1553.43 1551.32 1550.84 1550.77 1550.02 1549.74 1549.62 1549.37 1549.48 1549.41 1548.98 1548.92 1548.1 1547.12 1545.97 1545.57 1545.77 1544.31 1541.95 1541.24 1540.43 1540.51 1540.64 1541.73 1541.65 1541.19 
1562.61 1562.48 1564.15 1564.6 1561.97 1560.75 1561.2 1560.94 1559.23 1557.21 1554.03 1551.7 1550.57 1550.19 1549.93 1549.77 1549.36 1549.55 1549.6 1549.57 1549.01 1549.02 1548.56 1548.11 1546.82 1546.4 1545.01 1543.9 1541.86 1541.32 1540.66 1540.58 1540.65 1541.92 1541.91 1541.55 
1564.69 1564 1563.31 1563.98 1563.02 1562.44 1561.19 1560.07 1558.06 1556.24 1553.27 1551.88 1549.62 1548.6 1548.01 1548.01 1549.06 1549.32 1549.27 1549.32 1549.27 1549.05 1548.59 1547.55 1546.52 1545.98 1544.36 1543.71 1542.14 1541.61 1540.8 1540.85 1540.85 1542.28 1541.95 1541.06 
1565.5 1564.51 1563.74 1563.48 1562.18 1561.47 1560.32 1559.5 1557.17 1555.39 1552.65 1550.75 1548.3 1547.51 1546.51 1546.42 1548.01 1548.58 1548.94 1549.22 1549.33 1549.04 1549.03 1547.82 1546.62 1545.86 1544.97 1543.73 1542.62 1541.99 1540.87 1540.79 1540.99 1542.31 1541.78 1540.75 
1565.4 1564.85 1562.93 1561.74 1560.43 1560.22 1558.36 1556.93 1554.24 1552.99 1551.71 1550.44 1547.28 1544.78 1545.23 1546.18 1547.06 1547.42 1548.8 1548.8 1548.71 1548.89 1548.85 1548.28 1546.69 1545.59 1544.02 1543.54 1542.68 1541.83 1540.99 1540.87 1540.98 1541.28 1540.58 1540.61 
